5.5384307 -18.017708 -16.002089
3.4955149 -17.57447 -15.026244
3.9092 -17.674568 -15.321639
4.3794107 -17.755196 -15.59268
4.944326 -17.803108 -15.8227215
5.559095 -17.834785 -16.033033
3.427064 -17.383308 -15.00566
3.822831 -17.489632 -15.309187
4.3167996 -17.561409 -15.568968
4.814878 -17.63282 -15.828978
5.3593416 -17.688911 -16.070219
3.642614 -17.228096 -15.174117
4.035535 -17.335701 -15.479765
4.501596 -17.417793 -15.753188
5.08307 -17.459785 -15.976088
5.684259 -17.496223 -16.192915
3.5522738 -16.980598 -15.1582775
3.9434369 -17.08857 -15.464522
4.425054 -17.16462 -15.730452
4.973634 -17.217842 -15.967848
5.619691 -17.23774 -16.163725
3.2566078 -16.589424 -14.920668
3.6551068 -16.694038 -15.22264
4.046476 -16.801888 -15.52925
4.476407 -16.896492 -15.819396
5.057161 -16.937935 -16.042295
5.709371 -16.95539 -16.235624
3.5422218 -16.31916 -15.145461
3.883241 -16.445015 -15.475325
4.314374 -16.538765 -15.764357
4.8591046 -16.592415 -16.002836
5.467374 -16.62458 -16.214918
4.379358 -16.13337 -15.772505
4.882318 -16.202095 -16.030317
5.517049 -16.224617 -16.230177
3.235174 -16.136787 -14.899642
3.644887 -16.216316 -15.257978
4.0370717 -16.29969 -15.622694
4.6016097 -16.351692 -15.944258
5.318593 -16.376656 -16.229551
3.53594 -17.062141 -15.18933
4.046476 -17.124702 -15.523406
4.617444 -17.177132 -15.844267
5.291799 -17.211739 -16.141523
5.8999457 -17.199837 -16.280684
3.5430348 -17.831734 -14.960936
4.042875 -17.89753 -15.298598
4.5867057 -17.956245 -15.627181
5.301526 -17.985115 -15.914549
5.8511367 -18.006111 -16.13185
3.421609 -18.20417 -14.6851635
3.8557138 -18.282173 -15.040038
4.435556 -18.334663 -15.358656
5.074872 -18.377388 -15.664824
5.747281 -18.414558 -15.963316
3.3568778 -18.586922 -14.377378
3.8026938 -18.663094 -14.729277
4.328744 -18.725533 -15.062026
4.702646 -18.815926 -15.436965
5.609231 -18.812508 -15.676512
3.3125238 -18.702644 -14.31909
4.0081 -16.228645 -15.538741
4.581937 -16.44532 -15.90483
5.4078417 -16.610054 -16.184736
3.3440487 -16.239326 -14.986083
3.711938 -16.2696 -15.303511
4.0902677 -16.29969 -15.611571
4.519002 -16.328682 -15.872893
4.9954767 -16.356758 -16.090971
5.519597 -16.383858 -16.266768
3.5782177 -16.63581 -15.200957
3.960744 -16.666023 -15.5054
4.382745 -16.695381 -15.77339
4.819757 -16.724556 -16.028517
5.3866696 -16.751167 -16.164473
5.9350977 -16.778267 -16.320433
3.546316 -16.97602 -15.148268
3.9350448 -17.006355 -15.447508
4.3357177 -17.036507 -15.73625
4.823205 -17.06501 -15.944701
5.346418 -17.092964 -16.122007
5.884427 -17.120735 -16.288084
3.4899988 -17.290718 -15.044692
3.866227 -17.32154 -15.356551
4.2976737 -17.351387 -15.616911
4.74822 -17.380928 -15.860655
5.2571387 -17.409554 -16.05165
5.785802 -17.437935 -16.226637
3.2627308 -17.572884 -14.792967
3.6599548 -17.603523 -15.08531
4.0480657 -17.634407 -15.387114
4.480581 -17.664558 -15.647856
4.9764 -17.693672 -15.850707
5.478517 -17.722847 -16.049803
6.0121007 -17.751595 -16.222029
3.2617958 -17.817207 -14.665282
3.6352248 -17.848518 -14.981322
4.05969 -17.879036 -15.249465
4.477952 -17.909676 -15.524626
4.9479537 -17.939522 -15.752455
5.444326 -17.969063 -15.957503
5.967714 -17.998299 -16.139708
3.4048889 -18.048164 -14.734023
3.789548 -18.079475 -15.040267
4.2320757 -18.10981 -15.292418
4.6887827 -18.140083 -15.532591
5.1658187 -18.170052 -15.75537
5.654596 -18.20002 -15.969084
3.4427497 -18.255928 -14.643888
3.8484738 -18.287117 -14.930983
4.2541327 -18.318367 -15.219069
4.713441 -18.348885 -15.45761
5.185743 -18.37928 -15.685591
5.718393 -18.408882 -15.859313
3.2322738 -18.411812 -14.2810955
3.5846188 -18.443977 -14.619917
3.954347 -18.475899 -14.942397
4.4032607 -18.506721 -15.190444
4.847642 -18.537605 -15.444212
5.367238 -18.567574 -15.629195
5.8117647 -18.598701 -15.886122
3.483991 -18.597298 -14.468946
3.8593228 -18.62928 -14.786559
4.3200088 -18.660103 -15.023802
4.670495 -18.692451 -15.366393
5.2478647 -18.72181 -15.497038
5.698556 -18.752998 -15.748426
3.394636 -18.739937 -14.219939
3.7574089 -18.772041 -14.550353
4.1550307 -18.803719 -14.847975
4.50617 -18.836067 -15.19029
3.5819218 -18.545296 -14.562148
3.9855208 -18.577705 -14.896681
4.466691 -18.610847 -15.157286
4.917112 -18.643806 -15.448866
5.4788446 -18.677864 -15.636153
6.01822 -18.711739 -15.847121
3.5261738 -18.156319 -14.762129
3.9458249 -18.188362 -15.0796795
4.450883 -18.221138 -15.315917
4.943689 -18.253853 -15.565779
5.464071 -18.286934 -15.791274
5.9984407 -18.320198 -16.00569
3.539522 -17.779854 -14.906065
3.934553 -17.811165 -15.246459
4.3959017 -17.843025 -15.523497
4.905294 -17.875313 -15.755934
5.472951 -17.90815 -15.935027
3.5281918 -17.396004 -15.013823
3.9338849 -17.426826 -15.342818
4.38302 -17.458076 -15.630568
4.890638 -17.489754 -15.863462
5.460195 -17.52198 -16.039366
3.3721778 -16.995186 -14.974288
3.7797937 -17.02552 -15.300231
4.2010207 -17.056038 -15.613661
4.70046 -17.087044 -15.852583
5.224679 -17.118294 -16.06967
5.8594637 -17.15046 -16.183851
3.3849578 -16.57917 -15.021986
3.7948577 -16.609077 -15.344908
4.231801 -16.639107 -15.642241
4.703515 -16.66938 -15.907073
5.224618 -16.70002 -16.126036
5.8372316 -16.73133 -16.259932
3.4799018 -16.152351 -15.086546
3.884317 -16.181831 -15.41432
4.309514 -16.211372 -15.7224865
4.7863517 -16.241219 -15.9816265
5.3357058 -16.271431 -16.172651
5.9478617 -16.302132 -16.306196
3.0460258 -14.002937 -13.619078
2.825441 -14.49537 -13.726332
2.6067328 -14.990426 -13.832732
2.4353077 -15.528145 -13.917159
3.061246 -14.316414 -13.887007
2.8078399 -14.781563 -14.009306
2.609037 -15.295357 -14.106291
2.51225 -15.900642 -14.155943
3.0453389 -14.608894 -14.198454
2.8408828 -15.118111 -14.297774
2.7249959 -15.706795 -14.356108
3.1158538 -14.979989 -14.509474
2.9758468 -15.547799 -14.579283
3.14618 -16.007515 -14.896742
3.181413 -15.834054 -14.97885
3.2138069 -15.360664 -14.843153
2.9276898 -15.956184 -14.726698
3.1718647 -15.041206 -14.622801
2.850221 -15.53846 -14.534468
2.907594 -14.949348 -14.302671
2.5885057 -15.453133 -14.211806
3.1560798 -14.231087 -14.049468
2.827596 -14.701057 -13.967421
2.5038238 -15.189766 -13.8800335
2.2313278 -15.8227005 -13.749723
3.1582458 -13.9181595 -13.712004
2.8076568 -14.326546 -13.647795
2.1674778 -15.98365 -13.644667
2.99307 -14.452705 -14.064238
2.6116498 -15.238838 -14.0540905
2.3922548 -15.942329 -14.038512
3.1055808 -15.822456 -14.794004
3.0100298 -13.993294 -13.85475
2.5787098 -14.821908 -13.89009
2.2927217 -15.576057 -13.916182
2.3264248 -15.764596 -13.762419
2.564473 -15.927315 -14.1391735
2.4124458 -15.349312 -13.758238
2.6108367 -15.527412 -14.154737
2.891805 -15.674629 -14.51129
3.2210588 -15.804207 -14.845213
2.6501667 -14.9129715 -13.880934
2.902623 -15.071358 -14.252165
3.140462 -15.235238 -14.630522
2.9153109 -14.329781 -13.799223
3.0955977 -14.515938 -14.206938
2.774782 -14.454414 -13.755476
3.0126967 -14.564889 -14.157851
2.656026 -14.999275 -13.969649
2.9345179 -15.102058 -14.360564
3.2124758 -15.20533 -14.752501
2.3441248 -15.3678665 -13.634352
2.5436718 -15.485847 -14.046553
2.8350348 -15.586372 -14.433836
3.1820037 -15.676643 -14.80699
2.3300338 -15.839486 -13.744368
2.56228 -15.951485 -14.147673
2.8453188 -16.054024 -14.537642
2.525781 -15.193855 -13.794936
2.7757049 -15.478523 -14.274031
3.117219 -15.743111 -14.719756
2.871564 -14.073128 -13.611418
3.1367848 -14.105476 -14.028227
2.6959128 -14.409431 -13.633437
2.9836588 -14.44117 -14.027998
2.6419768 -14.743966 -13.69969
2.8837218 -14.776986 -14.139082
3.192479 -14.807992 -14.512373
2.569028 -15.077157 -13.772185
2.830571 -15.109688 -14.192152
3.135824 -15.140938 -14.568923
2.492986 -15.418465 -13.947081
2.83122 -15.448982 -14.292067
3.1384788 -15.480354 -14.666975
2.3465858 -15.756477 -13.763106
2.628537 -15.788766 -14.163435
2.936261 -15.82026 -14.538161
2.5337958 -15.620186 -13.96443
2.8618138 -15.648933 -14.367644
3.198911 -15.677682 -14.761397
2.6417859 -15.156502 -13.931883
2.9357538 -15.184884 -14.369246
2.7290277 -14.677132 -13.753035
3.0200548 -14.705269 -14.193953
3.1300979 -14.245979 -14.021819
5.960981 -13.793648 -15.737807
5.429708 -13.940376 -15.652129
5.9991117 -15.208443 -16.29135
5.453519 -15.33503 -16.202223
5.000154 -15.641366 -16.133253
5.487703 -15.9087 -16.350508
6.028516 -14.939461 -16.257322
5.418882 -14.939889 -16.133924
4.935441 -15.170724 -16.034803
4.526227 -15.540291 -15.949934
5.490541 -14.4129715 -15.9503765
5.0219507 -14.668098 -15.853774
4.555341 -14.926949 -15.757552
5.905992 -13.910957 -15.841429
5.375966 -14.051949 -15.733
5.9077077 -13.648567 -15.645766
5.37766 -13.788155 -15.5371685
3.5732548 -13.392525 -13.6399975
3.2586298 -13.80378 -13.790709
3.532136 -13.6612015 -13.963758
3.2630548 -14.112434 -14.093001
3.811483 -13.525459 -14.172774
3.5185218 -13.956612 -14.313216
3.299146 -14.451912 -14.419676
4.100595 -13.3946 -14.42845
3.8120658 -13.830025 -14.567107
3.575013 -14.310371 -14.682021
3.394456 -14.841134 -14.770918
3.2449658 -15.4008255 -14.845503
4.286302 -13.6056595 -14.808699
4.023996 -14.064705 -14.935393
3.798349 -14.556344 -15.045241
3.603742 -15.076241 -15.140852
3.5036209 -15.681161 -15.193083
4.7164397 -13.64875 -15.127776
4.4305387 -14.08857 -15.265273
4.208795 -14.584724 -15.373412
4.0044947 -15.097237 -15.47357
3.928464 -15.724557 -15.515074
5.318307 -13.569527 -15.3756695
5.0031257 -13.98542 -15.526701
4.7324567 -14.440011 -15.657423
4.5295687 -14.954536 -15.757262
4.426248 -15.558175 -15.811736
5.782377 -13.8035965 -15.680693
5.463903 -14.218391 -15.833388
5.24051 -14.716012 -15.9429
5.0319986 -15.227791 -16.045668
4.9032907 -15.81141 -16.112211
5.91591 -14.763131 -16.134855
5.6945777 -15.265633 -16.243727
5.5355697 -15.824287 -16.324415
5.703424 -15.432931 -16.314802
5.33526 -15.808723 -16.267378
5.844541 -14.930489 -16.184828
5.425657 -15.172738 -16.175535
5.032857 -15.483224 -16.146467
4.696279 -15.942329 -16.07443
6.013826 -14.419076 -16.034193
5.602884 -14.677743 -16.019514
5.1969767 -14.950935 -16.000685
4.7952967 -15.236947 -15.978209
4.453752 -15.681466 -15.909667
5.7729197 -14.185432 -15.875441
5.355611 -14.426095 -15.865569
4.956537 -14.714546 -15.84175
4.5711718 -15.040658 -15.807021
4.2194567 -15.457467 -15.7458935
3.9337018 -16.052864 -15.632903
5.594186 -14.011361 -15.714949
5.172597 -14.239632 -15.708189
4.778573 -14.539375 -15.680449
4.420083 -14.933357 -15.625151
4.0687037 -15.35041 -15.563292
3.756708 -15.876167 -15.469801
5.955461 -13.674386 -15.564009
5.5017366 -13.820321 -15.581221
5.084871 -14.058723 -15.571043
4.6942077 -14.365243 -15.540831
4.3142366 -14.702035 -15.501814
3.9485137 -15.07917 -15.451064
3.633283 -15.593452 -15.360228
5.726083 -13.557747 -15.447157
5.2873197 -13.7393875 -15.453444
4.8906217 -14.0275345 -15.428191
4.5044227 -14.344795 -15.394438
4.127069 -14.687752 -15.353194
3.772981 -15.094856 -15.293211
3.469003 -15.638802 -15.193144
5.782415 -13.327461 -15.302016
5.341508 -13.502022 -15.309996
4.9337506 -13.759895 -15.29318
4.540441 -14.056222 -15.2650585
4.159162 -14.385872 -15.227156
3.8033228 -14.784676 -15.168944
3.4853408 -15.287362 -15.080245
5.030694 -13.473946 -15.105483
4.6143117 -13.709298 -15.094969
4.2377067 -14.04731 -15.053938
3.8721168 -14.417122 -15.00363
3.5268798 -14.843941 -14.936583
4.5840197 -13.432625 -14.865157
4.1996818 -13.748238 -14.830122
3.8288238 -14.101449 -14.78401
3.486841 -14.533211 -14.714629
4.323453 -13.352425 -14.543425
3.9476519 -13.689095 -14.501708
3.5776339 -14.044015 -14.4546795
3.2500849 -14.513252 -14.37358
3.874173 -13.46479 -14.161925
3.5119598 -13.837655 -14.108702
3.5212798 -13.546455 -13.765318
3.7353408 -14.314461 -14.819106
3.2910779 -15.132882 -14.810805
3.8543978 -14.704231 -15.163313
3.515859 -15.470039 -15.151381
4.2086997 -14.8991165 -15.481246
3.916643 -15.642525 -15.467955
4.426511 -15.461128 -15.747084
4.870019 -15.802743 -16.004408
4.479783 -15.375619 -15.852995
4.3345537 -16.057503 -15.846571
4.2035837 -14.51545 -15.422316
3.8723497 -15.358285 -15.427718
3.7226307 -16.042427 -15.425765
3.7515538 -15.084541 -15.286864
3.546342 -15.796333 -15.290282
3.8544898 -14.52137 -15.165541
3.518869 -15.298042 -15.178389
3.3620238 -15.986214 -15.182234
3.9485908 -14.321908 -15.106474
3.49447 -15.156075 -15.128188
3.3415878 -15.843452 -15.1342
3.8734028 -14.330453 -15.083251
3.4894 -15.131599 -15.103514
3.292646 -15.839973 -15.113707
3.527444 -15.942635 -15.190733
3.9399579 -16.042488 -15.487135
3.420575 -15.3834915 -14.988783
3.7575088 -15.510933 -15.320632
4.193113 -15.602669 -15.607146
4.657064 -15.684884 -15.882154
5.240045 -15.724923 -16.104292
5.937978 -15.724923 -16.276823
3.3174489 -14.686226 -14.594191
3.6031158 -14.832649 -14.950865
3.927564 -14.964973 -15.289595
4.3436217 -15.06385 -15.586089
4.830873 -15.137398 -15.85092
5.411046 -15.178048 -16.074919
3.2551358 -13.785653 -13.8552685
3.467676 -13.960091 -14.248854
3.706277 -14.124641 -14.629668
3.9657 -14.281441 -15.000578
4.3652086 -14.386117 -15.305357
4.793596 -14.480843 -15.597914
5.3454027 -14.530891 -15.834624
6.009942 -14.540962 -16.021864
3.9397328 -13.339729 -14.132552
4.1514096 -13.515266 -14.528548
4.430215 -13.665475 -14.89221
4.7791 -13.789619 -15.222991
5.304368 -13.84864 -15.471785
5.907281 -13.880135 -15.68669
3.415223 -13.329475 -13.635008
3.6295638 -13.444893 -14.045683
3.885774 -13.552254 -14.445281
4.2732177 -13.634163 -14.80995
4.693029 -13.710396 -15.167555
5.1990976 -13.7705765 -15.504164
3.25047 -14.675606 -14.560851
3.571451 -14.7705765 -14.941908
3.9560218 -14.853706 -15.307143
4.408986 -14.924386 -15.655928
5.055639 -14.959237 -15.956358
5.889413 -14.960091 -16.212126
3.559408 -15.295724 -15.126753
3.9943438 -15.369881 -15.479002
4.513761 -15.428841 -15.811034
5.1766057 -15.4618 -16.108519
5.954591 -15.451118 -16.310194
3.5331278 -15.766549 -15.180357
3.9774067 -15.839425 -15.53044
4.4872108 -15.900764 -15.865416
5.1578727 -15.933053 -16.161375
5.939573 -15.918404 -16.349989
3.5040789 -15.998238 -15.149703
5.8504686 -13.446602 -15.351073
3.586351 -13.35627 -13.950362
3.900075 -13.386665 -14.3201885
4.221029 -13.416756 -14.682768
4.593198 -13.445199 -14.996199
5.0539746 -13.470772 -15.225935
5.509317 -13.496712 -15.462461
3.3390248 -13.742989 -14.02246
3.6470578 -13.773628 -14.397185
3.9699528 -13.803841 -14.757231
4.321321 -13.8331375 -15.089919
4.7718177 -13.859322 -15.328642
5.201543 -13.8863 -15.588515
5.703012 -13.91114 -15.782362
3.4205298 -14.137154 -14.426192
3.734567 -14.167915 -14.794295
4.087686 -14.197456 -15.12477
4.5097966 -14.224983 -15.389967
4.922197 -14.252815 -15.665495
5.4135637 -14.278451 -15.86801
5.965322 -14.302437 -16.016325
3.2473688 -14.473518 -14.445265
3.573366 -14.503975 -14.801619
3.9229858 -14.533761 -15.1352825
4.3023887 -14.562691 -15.440871
4.709321 -14.59089 -15.721128
5.185403 -14.617196 -15.937499
5.760209 -14.640877 -16.06381
3.501031 -14.838997 -14.885542
3.851049 -14.868783 -15.218794
4.2409906 -14.89753 -15.514403
4.666494 -14.925301 -15.777266
5.1622777 -14.951302 -15.975508
5.695756 -14.976388 -16.140852
3.4455388 -15.172066 -14.941039
3.7879498 -15.202279 -15.281676
4.173196 -15.231392 -15.5818615
4.6078277 -15.259225 -15.836272
5.097425 -15.285774 -16.040632
5.642972 -15.310982 -16.195051
3.441568 -15.511726 -15.045546
3.8025978 -15.541695 -15.36862
4.216901 -15.57026 -15.641722
4.636846 -15.598824 -15.910582
5.111806 -15.626045 -16.12927
5.67492 -15.651314 -16.268156
3.2696319 -15.851204 -14.887938
3.6307309 -15.881416 -15.211287
4.0075006 -15.9112625 -15.520171
4.4021196 -15.9407425 -15.812834
4.873262 -15.9685135 -16.034819
5.390039 -15.995308 -16.216215
5.951562 -16.021248 -16.358686
3.548307 -15.706429 -15.142745
3.9744809 -15.735481 -15.448545
4.392602 -15.764535 -15.763166
4.8803377 -15.793831 -16.011106
5.458593 -15.823556 -16.173613
3.2963078 -15.2133255 -14.739317
3.64372 -15.241707 -15.122466
4.037595 -15.27021 -15.459746
4.500795 -15.298897 -15.72975
4.989232 -15.327705 -15.976637
5.564481 -15.356881 -16.141523
3.3168268 -14.733407 -14.628188
3.6832628 -14.761543 -14.992339
4.0718207 -14.7896805 -15.334776
4.535657 -14.81794 -15.603789
5.00905 -14.846322 -15.864913
5.557851 -14.874825 -16.054594
3.418779 -14.2740555 -14.464858
3.7600489 -14.302132 -14.854521
4.146947 -14.330147 -15.19876
4.611333 -14.358162 -15.467131
5.073919 -14.386239 -15.738707
5.606431 -14.414436 -15.943769
3.343515 -13.809517 -13.968504
3.6559458 -13.837411 -14.388411
4.001008 -13.865243 -14.775084
4.40479 -13.893014 -15.103301
4.864133 -13.920724 -15.377394
5.3379107 -13.948495 -15.638716
5.934957 -13.976204 -15.781706
3.676118 -13.380562 -13.980895
4.007661 -13.407967 -14.382536
4.3826036 -13.435188 -14.740431
4.8092318 -13.462349 -15.047255
5.285814 -13.4893875 -15.305738
5.861608 -13.516366 -15.468672
1.8743179 -17.643806 -11.667952
1.7077688 -16.569832 -12.364684
1.8202678 -17.361153 -12.315108
1.8243269 -16.42646 -12.823653
1.8545009 -17.145699 -12.813108
1.8762978 -16.509285 -13.041457
1.9568108 -17.2743 -13.0076275
2.1107528 -16.636665 -13.493208
2.190492 -17.403267 -13.460433
2.0227518 -16.63868 -13.565047
1.8358848 -17.185799 -13.024855
1.6789368 -16.53608 -12.786406
1.6251879 -16.639534 -12.3301525
1.5993859 -16.121956 -12.008208
1.5096369 -16.505745 -11.10417
1.6036428 -17.05091 -11.076582
1.7557418 -17.567513 -11.0467205
1.9606029 -18.058907 -11.014815
2.178434 -18.544075 -10.982375
1.5475628 -16.397713 -11.467314
1.5588999 -16.982735 -11.443038
1.7385528 -17.48658 -11.412291
1.9067508 -17.995369 -11.382018
2.1133468 -18.485909 -11.350249
1.5525639 -16.39869 -11.843504
1.6697478 -16.933601 -11.81529
1.7385188 -17.490364 -11.788985
1.9048549 -18.000313 -11.758971
2.1411948 -18.477303 -11.726271
1.5918288 -16.296883 -12.222289
1.6639038 -16.853828 -12.19589
1.7908759 -17.383553 -12.167479
1.9419528 -17.901253 -12.138197
2.1557708 -18.389229 -12.106551
2.4051068 -18.860909 -12.073561
1.7254988 -16.095345 -12.587264
1.7284218 -16.686409 -12.563581
1.7792679 -17.252937 -12.538207
1.9672029 -17.753853 -12.507781
2.1252189 -18.26838 -12.478484
2.4157188 -18.721504 -12.4442425
1.7961859 -16.145576 -12.923399
1.8037659 -16.734688 -12.899642
1.9281439 -17.266914 -12.871672
2.0114489 -17.817451 -12.845243
2.2277617 -18.305305 -12.813948
2.4863749 -18.77369 -12.781081
1.9374398 -16.584175 -13.25508
2.015169 -17.139473 -13.229094
2.110879 -17.685127 -13.2024975
2.2931678 -18.189583 -13.172789
2.5307589 -18.668282 -13.141066
2.279199 -17.710152 -13.571394
2.4584708 -18.216805 -13.541975
2.680528 -18.70356 -13.511015
2.0508778 -16.344917 -13.531188
2.079454 -16.944893 -13.539061
2.1652389 -17.516731 -13.543166
2.3443918 -18.044685 -13.541167
2.605737 -18.53498 -13.533812
1.8988888 -16.332527 -13.243605
1.9347168 -16.92939 -13.252303
2.058183 -17.484077 -13.255126
2.23678 -18.01258 -13.254256
2.4705558 -18.515572 -13.249709
1.8208399 -16.68415 -13.0176525
1.9075289 -17.256538 -13.023695
2.0512059 -17.801521 -13.025862
2.249265 -18.32093 -13.024336
2.5640728 -18.7873 -13.014922
1.6970758 -16.522346 -12.702848
1.7926339 -17.091011 -12.709212
1.9425789 -17.63343 -12.711806
2.132181 -18.15699 -12.711653
2.3849878 -18.651497 -12.707152
1.6386268 -16.337654 -12.235686
1.6669209 -16.938423 -12.247801
1.7879308 -17.494453 -12.253356
2.003888 -18.005867 -12.252196
2.2188427 -18.517647 -12.251112
1.5647018 -16.501411 -11.707808
1.6618629 -17.069405 -11.716124
1.7787559 -17.627083 -11.722991
1.9842008 -18.143196 -11.723448
2.2326179 -18.639534 -11.720809
1.5314338 -16.46473 -11.193053
1.6048329 -17.04377 -11.203932
1.7729888 -17.577522 -11.207793
1.9728829 -18.096138 -11.209303
2.231469 -18.587837 -11.206496
2.2906318 -18.731758 -11.113402
2.1560829 -18.483894 -10.954405
2.2699938 -18.693672 -11.389524
2.0764058 -18.292915 -10.935469
2.1556787 -18.515572 -11.387496
2.2912529 -18.716927 -11.811141
1.9617859 -18.063362 -10.8392315
2.0469108 -18.284126 -11.288695
2.1609888 -18.49366 -11.722945
2.302404 -18.692696 -12.143126
1.8702859 -17.852852 -10.832442
1.9408388 -18.079292 -11.289153
2.0579388 -18.287788 -11.721983
2.183893 -18.492622 -12.14958
2.3611999 -18.678291 -12.551863
2.573175 -18.851143 -12.9373
1.8384489 -17.697395 -11.004241
1.8869408 -17.931892 -11.4716015
1.9988799 -18.14222 -11.906722
2.1211479 -18.348213 -12.33586
2.3073168 -18.530464 -12.733686
2.5543869 -18.690437 -13.10237
2.8075838 -18.848274 -13.468337
1.7523168 -17.465096 -11.081419
1.8177159 -17.693428 -11.540694
1.8925219 -17.91755 -11.994017
2.051252 -18.110054 -12.405653
2.229436 -18.295235 -12.807387
2.450662 -18.464485 -13.188323
2.7302828 -18.612556 -13.541792
1.6714828 -17.220955 -11.176283
1.7202009 -17.455452 -11.644011
1.8299499 -17.66645 -12.080519
1.9955989 -17.85633 -12.489027
2.1803138 -18.038948 -12.887892
2.3999228 -18.208626 -13.26982
1.5694709 -16.835457 -10.954482
1.6029679 -17.07624 -11.431059
1.7182939 -17.285591 -11.865889
1.8150039 -17.50129 -12.308744
1.9513638 -17.70185 -12.731368
2.155866 -17.8769 -13.12065
2.40183 -18.03675 -13.49008
1.5344288 -16.679024 -11.122237
1.5875099 -16.912361 -11.589308
1.7028129 -17.12159 -12.024336
1.8246359 -17.32795 -12.455199
1.9696399 -17.525276 -12.8739605
2.1788948 -17.698555 -13.26126
1.5164199 -16.33271 -10.892455
1.5105338 -16.588997 -11.390578
1.6003928 -16.808235 -11.839354
1.7148829 -17.017586 -12.27484
1.8607799 -17.21473 -12.694075
2.039655 -17.39936 -13.096678
2.2400718 -17.575813 -13.488539
1.4851319 -16.11866 -10.906554
1.5373238 -16.353157 -11.376509
1.6280189 -16.572273 -11.825804
1.7347229 -16.784737 -12.26602
1.8659569 -16.987556 -12.693205
2.0251667 -17.179573 -13.106017
2.1977508 -17.36628 -13.511794
1.5203718 -16.218513 -11.520094
1.6137139 -16.436531 -11.968367
1.7050599 -16.65467 -12.416396
1.9052168 -16.831612 -12.810133
2.0551918 -17.026985 -13.227858
1.5775539 -16.274849 -12.023603
1.6960078 -16.482796 -12.458663
1.8726319 -16.668587 -12.864272
2.0515378 -16.853218 -13.268294
1.6983389 -16.265327 -12.402098
1.8078469 -16.476448 -12.841246
1.9910328 -16.659492 -13.243483
1.7357498 -16.175728 -12.653791
1.8708998 -16.37696 -13.080229
2.075322 -16.55201 -13.472151
1.8603568 -16.100655 -13.025191
2.0621269 -16.276802 -13.418913
1.6460809 -16.16462 -11.960616
1.7169008 -16.308113 -12.410231
1.8610739 -16.437263 -12.838225
2.03489 -16.560799 -13.257765
1.6411488 -16.773323 -11.255568
1.7045869 -16.91877 -11.709258
1.7810608 -17.061592 -12.158507
1.9076889 -17.194649 -12.592803
2.054921 -17.3238 -13.021056
2.236074 -17.44654 -13.439742
1.7516068 -17.099983 -10.907637
1.7774209 -17.252937 -11.373838
1.8380859 -17.398994 -11.828948
1.9257288 -17.539742 -12.275603
2.0371718 -17.67585 -12.71498
2.2257738 -17.797432 -13.132262
2.4687128 -17.909004 -13.534606
1.8842748 -17.60218 -11.010115
1.9398888 -17.749397 -11.4681835
1.9804889 -17.899178 -11.92993
2.1248488 -18.029305 -12.361006
2.2651339 -18.160164 -12.79318
2.4511578 -18.28254 -13.212416
2.1242878 -18.14222 -11.21295
2.179139 -18.289742 -11.67201
2.266286 -18.431038 -12.121077
2.402196 -18.563118 -12.555754
2.61952 -18.680244 -12.96736
2.8624928 -18.792793 -13.372283
2.359556 -18.583931 -11.12831
2.4519858 -18.7248 -11.577773
1.5216728 -16.683113 -11.023909
1.6254288 -17.005806 -11.551131
1.7383318 -17.325752 -12.073927
1.9186379 -17.630257 -12.57115
2.138917 -17.925789 -13.053481
2.4666338 -18.197884 -13.497099
1.9096009 -16.078072 -13.004485
2.1443458 -16.111702 -13.453398
1.5881169 -16.32978 -11.018431
1.6141138 -16.368965 -11.685729
1.7323889 -16.405647 -12.256545
1.8460969 -16.442268 -12.828932
2.050958 -16.47657 -13.30844
1.6611649 -16.666573 -10.852187
1.6606688 -16.706245 -11.547835
1.6821299 -16.745186 -12.216856
1.8570569 -16.780403 -12.729201
2.0411768 -16.815254 -13.230284
1.7104578 -17.017708 -11.329161
1.7271929 -17.056648 -12.005049
1.8465209 -17.093147 -12.574507
2.0406618 -17.127876 -13.067091
2.2282798 -17.162666 -13.564162
1.7773489 -17.332039 -11.46594
1.8394098 -17.36982 -12.096388
1.9474188 -17.406502 -12.677474
2.1312149 -17.441475 -13.180693
1.8789568 -17.573677 -11.225981
1.8798418 -17.612679 -11.919905
2.0108538 -17.648933 -12.479826
2.140245 -17.685066 -13.038527
2.368043 -17.719124 -13.497939
1.9698919 -17.805794 -11.343001
2.0124447 -17.843819 -11.995146
2.1126068 -17.880562 -12.586089
2.2991037 -17.915474 -13.088697
2.536634 -17.94941 -13.53932
2.0865989 -18.011177 -11.166213
2.099588 -18.049812 -11.849593
2.168443 -18.087166 -12.473067
2.354925 -18.1222 -12.9768505
2.563772 -18.156807 -13.456739
2.190584 -18.199837 -11.174635
2.1677368 -18.2389 -11.894072
2.279893 -18.275398 -12.474761
2.426133 -18.311165 -13.018797
2.6702359 -18.345161 -13.464537
2.3006258 -18.349068 -10.805541
2.2623718 -18.388496 -11.54318
2.3312538 -18.425789 -12.169203
2.4397058 -18.462227 -12.752516
2.6671839 -18.49665 -13.216078
2.3774538 -18.528145 -11.080946
2.3435829 -18.567085 -11.81259
2.4565368 -18.603401 -12.393797
2.638593 -18.638496 -12.904006
2.8494887 -18.672981 -13.383955
2.463853 -18.703316 -11.347273
2.5329638 -18.740364 -11.97505
2.604528 -18.777168 -12.596755
2.7977839 -18.811958 -13.095655
3.0466888 -18.845833 -13.5384655
2.588723 -18.848885 -11.083281
2.5291038 -18.758247 -10.843367
2.4736528 -18.787971 -11.647734
2.561487 -18.818672 -12.302977
2.733388 -18.8498 -12.870924
2.202062 -18.358162 -11.511275
2.2396898 -18.388191 -12.217955
2.4005668 -18.418953 -12.796889
2.62726 -18.45002 -13.307707
2.0244567 -17.941414 -11.094573
2.030027 -17.971077 -11.836699
2.120874 -18.001045 -12.487898
2.3107347 -18.031563 -13.036208
2.555826 -18.062386 -13.527266
1.8261459 -17.566902 -11.460875
1.9091048 -17.596565 -12.122283
2.0339708 -17.62635 -12.737547
2.2310078 -17.656502 -13.27719
1.7255528 -17.156502 -10.915221
1.7303208 -17.185677 -11.660307
1.8386779 -17.215096 -12.294889
1.9699409 -17.244514 -12.902785
2.187265 -17.27436 -13.421065
1.6481259 -16.75904 -10.796233
1.6160558 -16.78785 -11.580763
1.7136929 -16.816963 -12.226958
1.8719269 -16.84626 -12.807859
2.0896578 -16.875679 -13.325881
1.5441258 -16.345345 -10.967421
1.5904438 -16.374275 -11.670561
1.7133379 -16.403267 -12.2906475
1.8651098 -16.432198 -12.877959
2.102006 -16.461372 -13.376189
2.648259 -13.427804 -10.945342
2.4313939 -13.670662 -11.38629
2.747762 -13.369698 -11.854872
2.4507878 -13.794381 -11.998061
2.172494 -14.235116 -12.132445
1.9705249 -14.741707 -12.230879
1.8131568 -15.288033 -12.308332
1.7011619 -15.875741 -12.364424
2.9686708 -13.314339 -12.265303
2.6375628 -13.710335 -12.424223
2.4038708 -14.189339 -12.537428
2.174455 -14.67286 -12.648619
1.9909868 -15.197212 -12.73828
1.8646289 -15.772896 -12.801146
3.01222 -13.387032 -12.486357
2.689966 -13.790658 -12.641142
2.443982 -14.25953 -12.760176
2.2416549 -14.766792 -12.858778
2.035436 -15.271919 -12.959212
1.9306809 -15.867196 -13.012129
3.1388597 -13.415962 -12.9872265
2.882119 -13.875558 -13.111388
2.6314788 -14.341073 -13.232695
2.4564948 -14.87281 -13.318724
2.245904 -15.37513 -13.421355
2.120004 -15.953133 -13.484496
2.4763877 -14.790902 -13.566893
2.187852 -15.375558 -13.450026
1.9337589 -16.061958 -13.302916
3.1555908 -13.705636 -13.346999
2.7896588 -14.07148 -13.295043
2.474027 -14.5738 -13.201796
2.1575708 -15.08094 -13.107436
1.8839768 -15.710396 -12.976347
3.028802 -13.615548 -12.953871
2.6785479 -14.021187 -12.8891735
2.3195238 -14.408578 -12.830245
2.023259 -14.967599 -12.719237
1.7698419 -15.650155 -12.571043
3.0825088 -13.335091 -12.564452
2.7210588 -13.708382 -12.509062
2.377153 -14.131905 -12.438445
2.0566268 -14.622566 -12.347472
1.7721459 -15.21656 -12.225203
1.5280348 -15.899972 -11.127623
1.5052918 -15.825813 -11.492842
1.6880089 -15.1456375 -11.886137
1.5552609 -15.804939 -11.867232
2.1040049 -14.25953 -12.275008
1.7865878 -15.0136795 -12.262724
1.6329699 -15.683907 -12.244535
2.555101 -13.897469 -12.628356
1.9760598 -14.782235 -12.625502
1.7834488 -15.472909 -12.608778
2.657136 -13.932259 -12.963469
2.184831 -14.76484 -12.956603
1.9228718 -15.489754 -12.942381
3.0209248 -13.66346 -13.310179
2.4001968 -14.570869 -13.308592
2.1629608 -15.285409 -13.293592
1.9973608 -15.9615555 -13.276167
2.08949 -15.711311 -13.518904
1.9819078 -15.677559 -13.226927
2.613077 -13.828499 -12.915633
2.1226058 -14.688789 -12.961134
1.9279908 -15.40162 -12.986418
1.8429848 -16.058968 -13.004195
2.611898 -13.603402 -12.587187
2.0639129 -14.493355 -12.63835
1.8445868 -15.219246 -12.66664
1.7135098 -15.8993 -12.688735
1.9859629 -14.315254 -12.16841
1.7205669 -15.064278 -12.201506
1.6107229 -15.734994 -12.223494
1.5769058 -15.262826 -11.6760845
1.5105909 -15.911812 -11.696333
1.5231339 -15.853341 -11.177306
1.4863979 -15.9771805 -11.040694
1.4993109 -15.796577 -11.070265
1.5002948 -16.050667 -11.566908
1.4790199 -15.586983 -11.022765
1.5112579 -15.829414 -11.504499
1.5735489 -16.059517 -11.969512
1.4157189 -15.281319 -10.826766
1.5094428 -15.50068 -11.278578
1.5392698 -15.743722 -11.761275
1.6171658 -15.967721 -12.21826
1.5349358 -15.209541 -11.202239
1.5662279 -15.452461 -11.685225
1.6499459 -15.674569 -12.140212
1.7175648 -15.902046 -12.601912
1.5935448 -14.938606 -11.283202
1.6673669 -15.165413 -11.745207
1.6631138 -15.421211 -12.244947
1.7651188 -15.635811 -12.689864
1.9434448 -15.821053 -13.096037
2.1430979 -15.9980545 -13.491301
1.7507678 -14.714486 -11.566573
1.7724009 -14.961311 -12.0549
1.8175749 -15.198311 -12.529646
1.9548088 -15.399605 -12.957182
2.128434 -15.5868 -13.365996
1.8957379 -14.272652 -11.528838
1.9121828 -14.52253 -12.020857
1.9511199 -14.762887 -12.499754
2.0874298 -14.96534 -12.9286175
2.2364588 -15.162605 -13.350371
2.0976498 -13.770149 -11.515807
2.2260828 -14.054329 -12.101698
2.2469268 -14.302498 -12.590788
2.3464367 -14.519784 -13.039031
2.470888 -14.726936 -13.47383
2.640878 -13.409615 -11.937376
2.611486 -13.678535 -12.454176
2.660966 -13.916084 -12.929457
2.764577 -14.132149 -13.376432
3.0839438 -13.338692 -12.941054
3.1681259 -13.563058 -13.399504
2.2496119 -13.928963 -12.026076
2.3238838 -14.071786 -12.475279
2.486333 -14.196908 -12.898528
2.579809 -14.335702 -13.341475
1.9531529 -14.351753 -11.823592
2.0018778 -14.499519 -12.279906
2.1158538 -14.634225 -12.716582
2.3111467 -14.752815 -13.129729
2.459329 -14.880745 -13.556471
1.8008969 -14.846444 -11.913343
1.8622109 -14.991585 -12.365553
2.0332878 -15.114937 -12.785414
2.178918 -15.243294 -13.21266
1.6983539 -15.177376 -11.578321
1.6505178 -15.344185 -12.063185
1.7772379 -15.476388 -12.495863
1.9260108 -15.604256 -12.922026
2.1022618 -15.726753 -13.340346
1.6090099 -16.014412 -11.50038
2.1492968 -14.253853 -12.214751
2.2374318 -14.576241 -12.756529
2.3351 -14.895821 -13.293592
3.1324668 -13.289436 -13.038146
2.2093139 -13.533272 -11.036025
2.367143 -13.569588 -11.569593
2.4712648 -13.607552 -12.15457
2.6526918 -13.642769 -12.659346
2.8802118 -13.676278 -13.116408
3.103967 -13.7098465 -13.575697
1.9790808 -13.89576 -11.072096
2.1335878 -13.93232 -11.608534
2.2513168 -13.969917 -12.179335
2.4208457 -14.005623 -12.695539
2.649808 -14.039314 -13.150649
1.8347409 -14.231454 -11.063719
1.9598669 -14.268806 -11.629744
2.0696309 -14.306587 -12.208251
2.2536898 -14.341743 -12.709654
2.496106 -14.375008 -13.151244
1.7547698 -14.567574 -11.157378
1.8378799 -14.606026 -11.765318
1.9635628 -14.643014 -12.327116
2.1400268 -14.67823 -12.835539
2.3818748 -14.711372 -13.2772045
1.7150619 -14.899849 -11.197386
1.7625709 -14.939278 -11.8410015
1.8913279 -14.976021 -12.399397
2.0952768 -15.010445 -12.880278
2.3268938 -15.044015 -13.332076
1.6269809 -15.242013 -11.388304
1.7086419 -15.28016 -11.996459
1.8601469 -15.31617 -12.531446
2.0308127 -15.35151 -13.044905
2.2530298 -15.385262 -13.505431
1.5883338 -15.576546 -11.090361
1.6146829 -15.61628 -11.756102
1.7221879 -15.653573 -12.336424
1.8788809 -15.689339 -12.86479
2.099969 -15.723274 -13.327208
1.6004229 -15.966377 -11.250135
1.6310018 -16.005684 -11.910902
1.7351389 -16.042854 -12.494109
1.5478679 -15.920296 -11.12889
1.6499488 -15.949226 -11.773741
1.7453278 -15.977975 -12.421828
1.9325418 -16.006844 -12.972411
2.18358 -16.035835 -13.455855
1.5628558 -15.476875 -11.243224
1.6572999 -15.505562 -11.895583
1.7945448 -15.534248 -12.50009
2.0183837 -15.562874 -13.0128765
2.269285 -15.59156 -13.49626
1.6385399 -15.014107 -11.243238
1.7722329 -15.042732 -11.855055
1.9273468 -15.071297 -12.441527
2.120328 -15.09974 -12.986311
2.361661 -15.12812 -13.479521
1.8438618 -14.563789 -11.68907
2.0049717 -14.592293 -12.270308
2.223569 -14.620675 -12.789626
2.4617507 -14.648933 -13.28694
2.013002 -14.104073 -11.45053
2.134672 -14.132821 -12.074355
2.3443458 -14.1612625 -12.6039715
2.5994349 -14.189583 -13.084944
2.837838 -14.217843 -13.581435
2.387147 -13.696663 -11.977156
2.573026 -13.725166 -12.532546
2.8227699 -13.753365 -13.019911
3.073247 -13.781502 -13.504972
2.743764 -13.269295 -11.960646
2.918393 -13.297433 -12.528807
3.1380508 -13.325326 -13.04814
3.296918 -13.537483 -13.497725
3.514818 -13.326607 -13.403197
3.3387117 -13.323617 -13.515334
3.374704 -13.353097 -13.548171
6.2023396 -18.335762 -16.143919
6.7125096 -18.61164 -16.108717
6.265947 -17.390999 -16.373335
6.371305 -17.949287 -16.34918
6.6283197 -18.439095 -16.319822
6.087579 -17.318855 -16.345884
6.260209 -17.847176 -16.320127
6.528074 -18.33265 -16.291044
6.1213536 -17.513924 -16.329542
6.251657 -18.061836 -16.306211
6.692281 -18.470894 -16.271803
6.206701 -17.712654 -16.31291
6.365091 -18.248665 -16.289686
6.105413 -17.768745 -16.286222
6.2910047 -18.29316 -16.26306
6.372209 -18.53547 -16.137114
6.9914637 -18.607185 -16.176603
6.1400657 -18.42585 -16.078154
6.909135 -18.470955 -16.350004
6.0314727 -18.237007 -16.131208
6.556699 -18.30317 -16.386396
6.105287 -18.067879 -16.236723
6.180505 -17.86567 -16.243437
6.0892076 -17.680977 -16.231077
6.4573717 -17.47364 -16.335966
6.3019876 -17.246529 -16.346632
6.493486 -16.927925 -16.373121
6.215734 -16.608467 -16.366804
7.3425307 -16.076912 -16.390287
6.050523 -16.352425 -16.372343
6.353963 -18.036812 -16.365263
7.114698 -18.358955 -16.176802
6.275567 -18.831795 -15.91818
6.4712157 -16.727547 -16.386229
8.814797 -16.875923 -16.356077
6.415319 -17.46473 -16.311567
6.6111007 -17.779427 -16.336882
6.442563 -18.028389 -16.368803
6.217092 -18.22895 -16.11682
6.7282457 -18.258797 -16.314436
7.5084276 -18.285042 -16.269651
6.2288527 -18.438972 -16.056028
6.785253 -18.468513 -16.212873
6.3825617 -18.628242 -16.028196
7.141134 -18.66169 -16.113066
6.21306 -18.783455 -15.942427
7.304532 -18.831673 -16.057356
6.618371 -18.746346 -16.00363
6.5682807 -18.35395 -16.189207
7.326528 -18.389534 -16.200193
6.040834 -17.941109 -16.116621
6.0778856 -17.554695 -16.172514
6.640802 -17.587105 -16.360487
6.414083 -17.182137 -16.377348
6.466943 -16.762886 -16.380934
9.216325 -16.339607 -16.331648
8.929086 -16.111275 -16.300947
9.131181 -16.502266 -16.294905
9.249036 -17.296516 -16.130003
8.876058 -16.862007 -16.282484
9.065233 -16.430367 -16.25189
11.619239 -18.711311 -14.321883
11.486223 -18.632698 -14.5831585
11.355815 -18.575813 -14.82498
11.545287 -18.072762 -14.764235
11.270463 -18.366768 -15.014662
11.463485 -17.863777 -14.954176
11.594974 -17.358284 -14.888182
10.881593 -18.747871 -15.245329
11.148031 -18.246895 -15.19113
11.367032 -17.744942 -15.132857
11.467086 -17.237434 -15.063841
11.51094 -16.693062 -14.984571
10.723966 -18.684761 -15.421568
10.981471 -18.182808 -15.366332
11.164674 -17.678352 -15.304579
11.321805 -17.173347 -15.240583
10.512781 -18.64698 -15.6161785
10.7937975 -18.145332 -15.562941
11.014316 -17.642097 -15.504485
11.136579 -17.13453 -15.43727
10.204171 -18.581184 -15.851347
10.459519 -18.077095 -15.795378
10.687826 -17.573067 -15.737212
10.872638 -17.06794 -15.675307
9.532552 -18.779915 -16.12396
10.022138 -18.28437 -16.087996
10.227708 -17.777473 -16.02722
10.420033 -17.271004 -15.965437
10.540847 -16.761482 -15.897353
9.787095 -17.764595 -16.296904
9.95617 -17.255318 -16.232573
10.077836 -16.74427 -16.164122
9.099141 -16.330025 -16.341322
9.474782 -16.866646 -16.291273
9.732984 -16.45716 -16.140577
9.588693 -17.415535 -16.257643
9.9382105 -17.028145 -16.10922
10.178697 -16.616463 -15.958876
10.258836 -16.167 -15.805007
9.945943 -17.747566 -16.108168
10.224428 -17.34504 -15.95883
10.487861 -16.940132 -15.809523
10.674396 -16.51783 -15.658751
10.808784 -16.083443 -15.50685
10.013978 -18.243477 -15.989958
10.324801 -17.848824 -15.841506
10.6053 -17.448494 -15.692854
10.903217 -17.053474 -15.544981
11.039375 -16.620918 -15.393599
11.135375 -16.17878 -15.241255
10.278158 -18.49665 -15.72769
10.625564 -18.11164 -15.580397
10.962858 -17.72596 -15.43344
11.19724 -17.317574 -15.28456
11.3516 -16.890999 -15.134001
11.451468 -16.451546 -14.982131
10.793704 -18.541267 -15.352553
11.106845 -18.150826 -15.205367
11.318614 -17.738167 -15.0562725
11.527839 -17.32557 -14.907331
11.064037 -18.693306 -15.014098
11.354569 -18.29908 -14.866941
11.5994005 -17.895515 -14.7191
11.2727785 -18.828499 -14.678282
11.546573 -18.431587 -14.531279
11.617269 -18.703926 -14.234526
11.324806 -18.645393 -14.654524
11.60669 -18.23182 -14.4820385
10.243024 -18.81086 -15.58734
10.676101 -18.448494 -15.43022
11.032332 -18.060066 -15.265028
11.292844 -17.637886 -15.089247
11.5093565 -17.20008 -14.908537
9.803571 -18.106087 -16.155119
10.171647 -17.71894 -15.989699
10.487033 -17.314095 -15.818846
10.742194 -16.888252 -15.641478
10.947603 -16.444649 -15.45854
9.387552 -16.428902 -16.340605
6.637468 -13.921577 -15.854842
6.891988 -14.74012 -16.232374
6.122152 -14.454231 -16.078138
7.617685 -14.7862015 -16.182173
6.669866 -14.188728 -15.994292
8.452813 -14.902351 -16.152006
7.409547 -14.148811 -15.946394
6.543191 -13.6959305 -15.774275
6.164174 -13.442818 -15.49922
6.895837 -13.531685 -15.665267
6.499849 -13.882821 -15.853194
6.122625 -14.249154 -16.032606
8.510831 -13.570686 -15.414931
7.9457717 -13.784309 -15.679167
7.471128 -14.072395 -15.902571
7.064241 -14.416939 -16.095396
6.745603 -14.837044 -16.248396
6.470128 -15.294746 -16.38194
8.520165 -14.493905 -15.917799
8.072816 -14.808357 -16.12869
7.706052 -15.19117 -16.303358
8.501489 -15.657845 -16.346281
8.308797 -15.28547 -16.246458
7.7735987 -15.2515335 -16.318571
7.2603617 -15.267403 -16.37602
8.631223 -14.97541 -16.076841
8.07734 -14.897591 -16.161818
7.55375 -14.888557 -16.226454
7.0475206 -14.918526 -16.279554
6.563119 -14.9997635 -16.31758
6.1192408 -15.180733 -16.32652
8.290006 -14.578683 -15.979582
7.750966 -14.532478 -16.055052
7.229879 -14.525642 -16.118757
6.748842 -14.61396 -16.154463
6.292028 -14.760811 -16.172987
8.543218 -14.276803 -15.768507
7.996118 -14.212166 -15.849394
7.4581037 -14.1647415 -15.924971
6.961812 -14.214973 -15.971617
6.4642878 -14.259591 -16.019789
8.814576 -14.035287 -15.55165
8.256532 -13.9459915 -15.639876
7.696134 -13.845833 -15.731078
7.1916137 -13.875863 -15.783507
6.68604 -13.900398 -15.837431
6.210199 -13.995553 -15.87042
8.580598 -13.740852 -15.428908
8.016389 -13.633919 -15.522139
7.489206 -13.610481 -15.590285
6.976289 -13.6178055 -15.649123
6.49088 -13.689217 -15.688796
6.031759 -13.823739 -15.709731
8.466329 -13.507149 -15.309432
7.916566 -13.43287 -15.392775
7.3701067 -13.36158 -15.474989
6.8896646 -13.445686 -15.510725
6.401086 -13.508003 -15.552855
8.757734 -13.403084 -15.128859
8.199403 -13.310921 -15.217619
6.646646 -13.299447 -15.403304
6.180669 -13.415108 -15.429274
6.985769 -15.601449 -16.294996
6.1951838 -15.146248 -16.208464
6.053766 -13.764779 -15.752211
6.601114 -14.898324 -16.243711
7.5804486 -14.7688675 -16.15431
6.7314687 -15.387948 -16.354582
7.678785 -15.270821 -16.289015
8.519235 -15.656441 -16.333586
6.081968 -13.51899 -15.590544
6.667089 -13.541023 -15.710097
7.4199347 -13.558175 -15.677657
8.358552 -13.569954 -15.479781
6.300634 -13.933236 -15.888838
6.9808507 -13.953072 -15.922255
7.801118 -13.969124 -15.831358
8.774545 -13.981148 -15.606734
6.6262326 -14.323495 -16.06645
7.3385897 -14.34333 -16.073439
8.224351 -14.358711 -15.926878
6.3460817 -14.664375 -16.182936
7.055562 -14.684823 -16.191725
7.81532 -14.70417 -16.159315
8.706239 -14.720345 -16.013319
6.2831926 -15.000252 -16.258879
6.987596 -15.021248 -16.27284
7.751081 -15.041023 -16.237577
8.561845 -15.059945 -16.164885
6.207704 -15.335885 -16.334486
6.9293647 -15.357063 -16.333097
7.6419687 -15.378792 -16.344816
8.43189 -15.398933 -16.29135
6.265973 -15.676095 -16.38423
8.469762 -15.741768 -16.36366
6.0336766 -15.853462 -16.342085
8.289777 -15.946297 -16.366804
6.15841 -15.386178 -16.291395
6.9034357 -15.416084 -16.300474
7.6678247 -15.446297 -16.296247
8.527055 -15.477058 -16.208113
6.19029 -14.903634 -16.16638
6.9257517 -14.932747 -16.183332
7.71755 -14.962227 -16.151716
8.576158 -14.992074 -16.062712
6.239461 -14.442757 -16.054213
6.982976 -14.471383 -16.062391
7.809076 -14.500252 -15.996947
8.773797 -14.529549 -15.806426
6.575799 -14.004098 -15.885527
7.37594 -14.032052 -15.840178
8.280004 -14.06031 -15.70143
6.435018 -13.543465 -15.636794
7.183538 -13.570382 -15.638548
8.079316 -13.59742 -15.503996
8.044824 -15.440315 -16.388273
8.755124 -15.520882 -16.262388
8.655881 -15.020454 -16.102278
8.549638 -14.516792 -15.941496
10.699785 -13.34034 -13.89987
10.249727 -13.641121 -14.611525
9.219682 -13.474557 -15.0857525
9.898916 -14.268319 -15.278288
9.096841 -14.287666 -15.648741
9.716108 -16.04963 -16.106718
9.065152 -15.752815 -16.256056
9.462861 -15.539132 -16.047209
8.851323 -15.332771 -16.17021
9.852228 -15.381783 -15.832427
9.193307 -15.067635 -15.98738
10.12478 -15.198311 -15.609801
9.45561 -14.863838 -15.771163
8.84424 -14.656563 -15.894576
10.456024 -15.070442 -15.346343
9.740933 -14.633553 -15.538573
9.122964 -14.413643 -15.666014
10.059858 -14.497627 -15.289839
9.4184885 -14.226632 -15.432784
10.478639 -14.501167 -15.015944
9.79635 -14.140938 -15.185942
9.164918 -13.889474 -15.322966
10.361522 -14.265327 -14.897093
9.691094 -13.931222 -15.059355
9.047524 -13.650033 -15.20529
10.84488 -14.386239 -14.637572
10.003602 -13.868722 -14.865874
9.3620615 -13.596687 -15.009336
10.8345175 -14.206245 -14.488814
10.098634 -13.7306595 -14.694396
9.471567 -13.493599 -14.827422
11.022738 -14.131173 -14.238462
10.278554 -13.640694 -14.4490795
9.600144 -13.288338 -14.617217
10.9682 -13.81617 -14.02281
10.2474375 -13.378426 -14.217757
11.071145 -13.388741 -13.744947
11.269401 -13.546029 -13.869062
9.130216 -14.37391 -15.768935
9.441079 -15.415413 -16.06703
9.493139 -15.759102 -16.130354
9.310582 -15.979012 -16.134794
9.491834 -15.5084915 -16.02786
9.600931 -15.021676 -15.798476
9.332898 -14.088875 -15.42874
9.1384325 -13.62458 -15.22061
9.327046 -15.911507 -16.189405
9.377393 -15.450509 -16.033537
9.325731 -14.963814 -15.874968
8.9983 -14.406869 -15.708815
9.925599 -16.032845 -15.988677
9.962415 -15.5709305 -15.833128
9.922696 -15.089546 -15.675444
9.757764 -14.575631 -15.514051
9.298646 -13.984749 -15.34381
10.383079 -15.728097 -15.652159
10.415601 -15.266488 -15.496947
10.289159 -14.764412 -15.337218
10.803132 -15.614632 -15.351347
10.769866 -15.138131 -15.194823
11.1408415 -15.714242 -15.086455
11.1501665 -15.249947 -14.931517
11.514039 -16.002876 -14.829237
11.078904 -15.9737015 -15.266966
11.107488 -15.463875 -15.063048
9.646874 -16.000923 -16.162016
9.777788 -15.526497 -15.968932
9.824285 -15.020454 -15.765898
4.163518 -12.838997 -13.662138
3.8435109 -13.246468 -13.8149395
4.8152747 -12.338142 -13.693678
4.418626 -12.681709 -13.882063
4.105104 -13.0951 -14.032012
5.639894 -11.97651 -13.696227
5.1672378 -12.258675 -13.919798
4.7599077 -12.594124 -14.113234
4.3793306 -12.951118 -14.294325
5.7770467 -12.144478 -14.098982
5.353776 -12.468269 -14.299681
4.947782 -12.805428 -14.492414
4.5722966 -13.167428 -14.671111
5.8211107 -12.53901 -14.602232
5.4142656 -12.876839 -14.795104
5.056684 -13.255623 -14.965407
5.646184 -13.164436 -15.218871
5.8784337 -13.043404 -15.114623
5.448266 -13.242683 -15.1148205
5.870778 -12.828927 -14.867765
5.4363027 -13.015938 -14.871153
5.007642 -13.21766 -14.870116
5.580034 -12.678048 -14.568053
5.148317 -12.870003 -14.569701
4.7137537 -13.055183 -14.573409
5.95152 -12.303474 -14.216902
5.497617 -12.4394 -14.23506
5.0531707 -12.59797 -14.246336
4.646619 -12.850777 -14.2290325
4.254667 -13.141975 -14.200194
5.9620557 -12.03016 -13.870574
5.531034 -12.220039 -13.872054
5.0893188 -12.383797 -13.881499
4.682744 -12.634773 -13.864378
4.2751737 -12.884773 -13.847624
3.8856628 -13.182137 -13.816557
3.802106 -13.135811 -13.699996
4.587835 -12.756355 -13.978789
4.7602897 -12.947945 -14.396421
5.205327 -13.079292 -14.766432
5.608491 -13.184334 -15.074553
5.179151 -12.352058 -13.964934
5.4266257 -12.51606 -14.348494
5.838819 -12.61805 -14.65341
5.892564 -12.013191 -13.9260235
5.13688 -12.161018 -13.802062
5.496225 -12.249154 -14.178053
4.760324 -12.6699295 -14.000044
5.045644 -12.945808 -14.479216
5.360841 -13.215218 -14.947371
5.613206 -11.892036 -13.803328
6.0176706 -11.918709 -14.091291
4.8552747 -12.2342 -13.789809
5.2222 -12.262459 -14.111556
5.646249 -12.288643 -14.379012
4.3624277 -12.580697 -13.773116
4.673341 -12.611153 -14.147779
5.0717897 -12.638496 -14.438078
5.475934 -12.665719 -14.723753
5.9796 -12.689522 -14.916029
3.8919919 -12.955391 -13.774779
4.195829 -12.986092 -14.155318
4.520128 -13.01606 -14.51573
4.914354 -13.043648 -14.809096
5.364801 -13.069405 -15.049819
5.843244 -13.094308 -15.265608
3.8970459 -12.958443 -13.69467
4.232091 -12.98536 -14.094512
4.589868 -13.012154 -14.47122
5.030832 -13.038704 -14.7650585
5.495778 -13.065194 -15.036253
6.019086 -13.09156 -15.251524
4.377263 -12.5935135 -13.69139
4.720811 -12.620003 -14.084303
5.1297617 -12.646187 -14.411467
5.573564 -12.67231 -14.704665
4.7703447 -12.24659 -13.617873
5.1542706 -12.27253 -13.97177
5.59163 -12.298225 -14.27249
5.441766 -11.966988 -13.728774
5.8860826 -11.992257 -14.024336
3.0933049 -12.877328 -11.067717
2.7346659 -13.251045 -11.240096
3.091745 -12.984383 -11.689559
3.1240208 -12.829353 -12.639067
3.1572847 -13.052682 -12.402236
3.2254229 -12.733468 -11.798995
3.1995058 -12.897713 -12.280561
3.2301338 -13.0501175 -12.744535
2.9664848 -12.779366 -11.265913
3.076372 -12.817574 -11.847304
2.6909268 -13.179939 -11.417052
2.753774 -13.219613 -12.0446
2.9187248 -13.25544 -12.566679
3.1597 -12.876411 -12.215178
3.46203 -12.62037 -11.511839
3.671151 -12.554939 -11.928556
3.296007 -12.914925 -12.108153
4.018293 -12.207467 -12.003584
3.658059 -12.58033 -12.176161
3.3270848 -12.977058 -12.335036
4.5556617 -11.90516 -12.308562
4.134916 -12.228402 -12.509306
3.772935 -12.599495 -12.6826
3.4282928 -12.984505 -12.847807
5.1063547 -11.677743 -12.632887
4.6671 -11.986764 -12.841841
4.304883 -12.35865 -13.014967
3.924661 -12.714668 -13.196455
3.5914237 -13.109688 -13.356092
5.4572268 -11.59089 -12.74211
4.990499 -11.8782425 -12.963454
4.592897 -12.221444 -13.152693
4.221776 -12.585885 -13.329634
3.873025 -12.968575 -13.496184
5.319417 -11.778145 -13.112944
4.8858347 -12.092354 -13.318373
4.5004587 -12.445625 -13.501479
5.6817746 -11.708443 -13.283049
5.2246866 -12.004098 -13.499388
5.968141 -11.852364 -13.498168
5.526693 -12.015511 -13.507536
5.09889 -12.211861 -13.506712
4.669469 -12.404671 -13.506987
4.2703447 -12.673653 -13.483992
3.8844388 -12.977975 -13.45027
5.8198447 -11.71766 -13.121717
5.38828 -11.903329 -13.123854
4.9681597 -12.117257 -13.117293
4.5486417 -12.333443 -13.11006
4.137803 -12.572273 -13.095931
3.7512867 -12.873849 -13.062575
3.3847668 -13.229195 -13.0128765
4.701436 -12.308601 -12.643401
4.246541 -12.437691 -12.662978
3.830648 -12.664132 -12.652464
3.4559147 -12.9962845 -12.609419
3.4223108 -12.805794 -12.848249
3.247953 -12.758614 -11.851973
4.0702567 -11.995492 -11.546019
3.841512 -12.345406 -12.169737
3.6606688 -12.674812 -12.765608
3.7152188 -12.911873 -13.241515
4.853242 -11.614632 -11.821761
4.403905 -12.050545 -12.556075
4.257348 -12.366768 -13.134718
4.3861747 -12.575691 -13.57495
5.293222 -11.52784 -12.387679
5.1633687 -11.839181 -12.96115
5.034372 -12.148628 -13.5310955
5.5952997 -11.606941 -13.056562
5.720689 -11.81916 -13.503035
5.9622316 -11.135384 -12.453917
6.026761 -11.2837 -12.9156475
5.3216257 -11.157417 -10.876051
4.9984937 -11.385995 -11.453352
4.864499 -11.574776 -11.97209
4.701497 -11.768684 -12.49716
4.736123 -11.921883 -12.963697
4.862951 -12.056222 -13.40344
3.34794 -12.54908 -11.287261
3.3223238 -13.18995 -13.190093
5.120054 -11.560677 -12.085051
