22.872353 6.8349533 -34.70404
22.929014 6.789604 -35.22758
22.996126 6.7454753 -35.741745
22.950996 6.5927653 -33.77707
22.849613 6.531791 -34.41783
22.88476 6.4842453 -34.957825
22.92924 6.4377365 -35.488937
23.052471 6.398918 -35.962708
23.04457 6.3517375 -33.34845
22.888617 6.710441 -33.985775
22.874887 6.6953654 -35.29692
23.026033 6.6900554 -35.814743
22.964905 7.0327682 -33.678635
22.864887 7.023857 -34.417084
22.898817 7.016899 -35.03737
23.000208 7.010978 -35.59767
22.945385 7.2822185 -33.91455
22.900074 7.2743454 -34.604782
22.969734 7.2681193 -35.19362
23.074472 7.262504 -35.750153
23.05465 7.489982 -33.767838
22.971025 7.4817424 -34.491516
23.004066 7.475334 -35.11172
23.090443 7.4696574 -35.683773
23.21805 7.684501 -33.363842
23.049099 7.6752243 -34.16313
23.04604 7.6684494 -34.81567
23.080687 7.6622233 -35.432648
23.2319 7.657707 -35.94867
23.268341 7.8901296 -33.514954
23.124174 7.8810954 -34.291973
23.10877 7.8740153 -34.954193
23.19434 7.868522 -35.52739
23.308668 8.108756 -33.79327
23.184366 8.099906 -34.551453
23.246887 8.0939865 -35.146164
23.346972 8.088676 -35.706253
23.233519 8.339958 -34.214874
23.321104 8.332878 -34.947277
23.42897 8.327751 -35.501785
23.58463 8.602043 -33.600647
23.454094 8.59307 -34.36566
23.451958 8.586173 -35.016388
23.58743 8.581474 -35.54741
23.730696 8.884941 -33.890533
23.621908 8.876213 -34.635162
23.660316 8.869926 -35.250225
23.813019 8.865653 -35.76602
31.107445 3.8663864 -36.744213
30.930891 3.7017744 -36.836132
31.028984 3.8489304 -36.84468
30.860184 3.7010424 -36.93663
31.170547 4.103019 -36.879852
30.638645 3.6075974 -37.160126
30.969858 4.0054245 -37.10379
30.664566 3.8810954 -37.472855
30.98417 4.2813644 -37.414978
31.21197 4.7026296 -37.35121
30.183811 3.8399584 -37.943756
30.529053 4.235649 -37.886536
30.844627 4.6371384 -37.827637
31.036354 5.068168 -37.760788
31.170965 5.5131755 -37.69023
29.464277 3.9683154 -38.531754
29.971848 4.326103 -38.483303
30.267065 4.7344284 -38.421814
30.554962 5.1433635 -38.360046
30.703442 5.5870895 -38.28946
30.855537 6.0297165 -38.219116
30.03515 6.297355 -38.78328
29.71206 4.9783244 -38.71469
30.134087 5.3002243 -38.57608
30.449148 5.6561203 -38.438126
30.746527 6.0168386 -38.300537
29.119352 3.9935224 -38.595825
29.718582 4.2605515 -38.456005
30.133333 4.5851364 -38.317596
30.538548 4.9109426 -38.179764
30.802097 5.282585 -38.042526
31.001644 5.675102 -37.90547
31.19509 6.0693283 -37.768524
29.578281 3.6796794 -38.191864
30.099777 3.9702072 -38.05313
30.507479 4.2954636 -37.91539
30.81193 4.6533732 -37.778275
31.071165 5.0253215 -37.64148
30.107725 3.6085124 -37.73828
30.550463 3.9222944 -37.600662
30.875004 4.2731853 -37.463745
31.186491 4.62725 -37.32721
30.815174 3.8569252 -37.22581
31.153566 4.2022014 -37.08954
30.91223 3.7581093 -36.92276
31.212257 4.115837 -36.786896
31.194368 3.8155444 -36.583633
31.217533 3.8408732 -36.53546
30.392832 3.5870893 -37.413845
30.794283 3.9063034 -37.257034
31.146343 4.241874 -37.09668
29.941076 3.7693403 -38.056152
30.370668 4.0808024 -37.90001
30.753614 4.4072795 -37.740723
31.051523 4.7633595 -37.57486
29.375933 4.0775065 -38.61635
29.94115 4.3430095 -38.469467
30.370653 4.6547775 -38.312603
30.68822 5.005546 -38.147186
30.929808 5.3831716 -37.975754
31.12785 5.7763596 -37.80081
30.354897 5.54998 -38.56035
30.685923 5.896293 -38.395462
30.876497 6.293815 -38.219036
31.359577 3.9167404 -36.26645
31.547318 4.344291 -36.203552
31.250296 3.9152753 -36.56604
31.523788 4.324333 -36.508728
31.68485 4.757438 -36.443924
31.76955 5.2076335 -36.373928
31.398767 4.2718425 -36.687683
31.605362 4.6952434 -36.62561
31.738321 5.1348805 -36.558624
31.88321 5.571647 -36.492462
31.810926 6.059562 -36.41127
31.25801 4.0997844 -36.781555
31.492235 4.5175095 -36.720947
31.643047 4.953666 -36.654785
31.79465 5.389396 -36.588715
31.821747 5.854545 -36.51407
31.843174 6.321708 -36.43892
31.314255 4.2559733 -36.78691
31.532103 4.677543 -36.724747
31.68167 5.1144333 -36.658035
31.824512 5.5527873 -36.59088
31.828917 6.0245285 -36.514114
31.419106 4.5181193 -36.819107
31.611681 4.945732 -36.75467
31.772785 5.3803635 -36.688137
31.849943 5.8353195 -36.61583
31.8662 6.3057175 -36.539185
31.292204 4.4039226 -37.0471
31.462786 4.8375773 -36.980347
31.652449 5.2662272 -36.914948
31.752914 5.716545 -36.84346
31.824333 6.1742473 -36.769928
31.4066 5.1312785 -37.285324
31.54332 5.5739665 -37.21559
31.61002 6.034294 -37.141068
31.308891 5.9573283 -37.619915
31.268236 5.4176555 -37.504852
31.42561 5.8232346 -37.368225
31.566095 6.2346115 -37.231552
31.423107 5.0054855 -37.190903
31.592337 5.4061813 -37.054626
31.711596 5.8240275 -36.918198
31.818651 6.2463303 -36.781662
31.386501 4.5816574 -36.95352
31.595575 4.9685593 -36.817642
31.78208 5.3627853 -36.68184
31.884796 5.7859426 -36.545715
31.947268 6.223564 -36.409286
31.520258 4.4696574 -36.651367
31.711725 4.8621135 -36.51587
31.872156 5.2649455 -36.380352
31.985817 5.6839523 -36.244625
32.0849 6.1083903 -36.10875
31.47015 4.180229 -36.44835
31.665466 4.5714035 -36.313156
31.858448 4.9629436 -36.17805
31.996937 5.3730392 -36.042797
31.27262 3.7941813 -36.34561
31.551245 4.1577682 -36.210815
31.782068 4.5365524 -36.076187
31.250862 3.6386642 -36.19458
31.52546 4.0034714 -36.059906
31.470594 4.210624 -36.36789
31.706526 4.5860515 -36.199047
31.853516 4.9942555 -36.022354
31.405869 4.6101604 -36.928833
31.607164 4.999442 -36.756134
31.816097 5.3854904 -36.584244
31.900713 5.81829 -36.401165
31.31073 5.1327434 -37.40605
31.501158 5.5270915 -37.231472
31.634735 5.9426804 -37.051937
31.324696 6.169792 -37.625885
29.51447 8.402641 -38.68695
28.92392 8.6703415 -38.640472
29.055761 8.906242 -38.419083
29.393297 9.085442 -38.16394
28.783443 8.900017 -38.582382
31.06951 9.063346 -36.624786
31.155157 8.407646 -37.209564
30.829176 8.983086 -37.10611
30.937138 6.490775 -38.14418
30.96224 6.9672775 -38.06543
30.95877 7.4522624 -37.98466
30.845312 7.968376 -37.896286
30.61856 8.517754 -37.79991
30.222162 9.117546 -37.691452
30.068151 7.4687424 -38.766113
29.917557 7.999565 -38.674316
29.593987 8.581169 -38.570816
30.228174 6.6954265 -38.644802
30.396929 7.1015544 -38.50641
30.468727 7.541374 -38.367794
30.340979 8.052116 -38.228302
30.143509 8.589652 -38.08789
30.864359 6.4381022 -38.162994
30.95915 6.867607 -38.02534
31.029436 7.306083 -37.887497
31.001871 7.7797775 -37.749023
30.842712 8.301933 -37.609406
30.580168 8.8637 -37.468414
31.168474 8.394889 -37.078033
30.859514 8.974297 -36.936356
30.99659 6.717582 -38.036545
31.10981 7.1442184 -37.853348
31.153793 7.59777 -37.663773
31.133575 8.076897 -37.468002
30.962328 8.616264 -37.257675
29.837051 8.085136 -38.680466
29.701454 8.61248 -38.472366
31.770348 6.806938 -36.357952
31.29067 8.83831 -36.013668
31.840109 6.4954143 -36.4377
31.43875 8.263236 -36.13745
31.310179 8.775627 -36.050045
31.824928 6.791313 -36.45836
31.721218 7.2939982 -36.372894
31.601254 7.802482 -36.28601
31.48196 8.312431 -36.198883
31.314205 8.8370285 -36.10794
31.848127 6.644462 -36.692993
31.791471 7.1362224 -36.610245
31.71038 7.6355515 -36.525543
31.605476 8.142693 -36.43889
31.390257 8.681084 -36.343975
31.677214 6.4948654 -37.066513
31.694696 6.9688644 -36.98843
31.628393 7.46569 -36.904343
31.528318 7.9729533 -36.817627
31.347029 8.503838 -36.724854
31.407578 6.4114914 -37.54695
31.43634 6.8843303 -37.469208
31.376684 7.381462 -37.38525
31.285698 7.8883595 -37.29892
31.30453 6.4923625 -37.63144
31.371407 6.9305954 -37.49409
31.406124 7.38079 -37.356415
31.329996 7.8715744 -37.217773
31.667856 6.6596603 -37.094696
31.680254 7.116752 -36.957214
31.660019 7.5866013 -36.81921
31.533438 8.096184 -36.679993
31.309065 8.643608 -36.539276
31.878145 6.6858444 -36.64474
31.883764 7.1451945 -36.50728
31.791992 7.6408005 -36.3687
31.68849 8.142448 -36.229492
31.469181 8.68859 -36.088547
32.0264 6.655815 -36.272797
31.980644 7.1335373 -36.135162
31.886452 7.6301193 -35.996685
31.775887 6.355522 -36.873
31.837004 6.799186 -36.686646
31.438816 6.59423 -37.443676
31.530184 7.0277023 -37.259293
31.549742 7.489311 -37.0681
31.48222 7.985771 -36.868378
31.361116 8.504936 -36.6629
31.185644 3.7841103 -35.84024
32.090706 5.7988815 -35.907272
32.1659 6.2316203 -35.7715
31.947233 4.9373093 -35.941483
32.03067 5.3662643 -35.806427
32.15544 5.7811813 -35.67148
32.212574 6.220207 -35.53601
31.746017 4.3857346 -35.925354
31.929115 4.7802653 -35.790848
32.050472 5.195915 -35.656124
32.1767 5.6099772 -35.52139
32.229103 6.0502853 -35.386124
31.391386 3.7277143 -35.956295
31.621824 4.1067424 -35.82155
31.827885 4.4933395 -35.68692
32.01772 4.885124 -35.55237
32.15488 5.2949753 -35.417618
32.226982 5.727775 -35.28244
32.25626 6.1763225 -35.146774
31.493523 3.7918012 -35.740463
31.714315 4.173332 -35.605606
31.939909 4.552665 -35.470932
32.091255 4.9572062 -35.33606
32.192753 5.3790812 -35.200912
32.28138 5.8059 -35.065582
32.307713 6.2554245 -34.92961
31.574846 3.8597944 -35.55655
31.780056 4.246147 -35.42148
31.974432 4.6357346 -35.2865
32.166084 5.0259323 -35.15161
32.241997 5.4565964 -35.016068
32.29441 5.896171 -34.880173
31.512796 3.7434614 -35.479473
31.749933 4.1188273 -35.344543
31.9515 4.5058513 -35.20967
32.110268 4.9074016 -35.074677
32.23772 5.319816 -34.939495
32.28944 5.7594523 -34.80371
32.350838 6.1962814 -34.667797
31.435778 3.5951464 -35.40732
31.688028 3.9654462 -35.272583
31.891405 4.351859 -35.13788
32.066433 4.7476726 -35.003143
32.203857 5.1565475 -34.868225
32.29912 5.5804973 -34.73297
32.329582 6.0280685 -34.59706
31.663374 3.8295214 -35.14189
31.859213 4.218376 -35.00737
32.03264 4.6146164 -34.87285
32.194084 5.0149455 -34.73831
32.29355 5.437187 -34.603317
32.334568 5.880729 -34.467712
31.496368 3.6025922 -34.97551
31.76634 3.9661784 -34.841187
31.972801 4.3508835 -34.706787
32.119835 4.7560344 -34.572113
32.239975 5.170707 -34.43724
32.294155 5.6091843 -34.301712
32.346348 6.049125 -34.165966
31.717539 3.8723674 -34.58113
31.917398 4.2593303 -34.446686
32.102726 4.6509933 -34.31224
32.21146 5.0696335 -34.177216
32.29229 5.4985275 -34.04185
32.317738 5.9479904 -33.90576
31.705894 3.8025434 -34.281296
31.898836 4.1919475 -34.147003
32.071095 4.588188 -34.01265
32.194534 5.0017014 -33.87787
32.273914 5.431144 -33.7426
32.307392 5.8777995 -33.606644
31.541025 3.6123583 -34.015
31.760973 3.9927902 -33.881073
31.95588 4.381523 -33.747086
32.112816 4.7833176 -33.61284
32.22097 5.2025065 -33.47809
32.23207 5.6570354 -33.342102
32.319756 6.084709 -33.206802
31.536947 3.6930463 -33.660614
31.761631 4.0719523 -33.5271
31.936775 4.4677653 -33.393295
32.07162 4.8776774 -33.25911
31.424532 3.6091843 -33.360138
31.669611 3.9813764 -33.22705
31.52286 3.7291794 -35.11754
31.811537 8.121513 -35.857864
31.609657 8.661552 -35.717144
32.08245 6.569206 -35.972042
32.0932 7.026481 -35.835114
32.052067 7.5035324 -35.69742
31.93438 8.010124 -35.558502
31.73558 8.548698 -35.418076
31.485674 9.109001 -35.276226
32.143356 6.6999435 -35.63481
32.16674 7.1528244 -35.498154
32.068836 7.6509323 -35.36
31.936487 8.163567 -35.220947
31.755812 8.696281 -35.080658
32.206955 6.6823654 -35.399857
32.182095 7.1526413 -35.26317
32.113785 7.640067 -35.12567
31.954908 8.162406 -34.98668
31.764738 8.698783 -34.846603
32.263145 6.497917 -35.25049
32.25804 6.9603806 -35.114254
32.163704 7.4565353 -34.976818
32.04216 7.9645305 -34.83853
32.306522 6.6181564 -35.011047
32.2337 7.1054006 -34.873928
32.170452 7.590751 -34.73642
32.030468 8.106071 -34.597565
32.334106 6.7058635 -34.793365
32.225914 7.206291 -34.655487
32.169678 7.6894455 -34.51762
32.322044 6.3453293 -34.743866
32.30414 6.8120046 -34.606842
32.204426 7.3098674 -34.468563
32.100178 7.834831 -34.322662
32.333595 6.6623454 -34.53093
32.25559 7.1518474 -34.39305
32.18099 7.641899 -34.254684
32.351616 6.479606 -34.4608
32.284004 6.964897 -34.32332
32.228184 7.447441 -34.1855
32.33966 6.338127 -34.331528
32.306618 6.8105392 -34.194622
32.267193 7.2866745 -34.057236
32.330185 6.5147014 -34.029266
32.27479 6.9960256 -33.891724
32.317493 6.4077682 -33.76909
32.324127 6.866081 -33.63217
32.309967 6.33654 -33.470078
32.356438 6.7802653 -33.33374
25.534206 9.868767 -37.09315
25.466236 10.182854 -36.519867
25.3296 9.603691 -37.311428
25.26395 9.914176 -36.737305
25.231552 10.1564865 -36.18605
25.111023 9.490775 -37.240524
25.03245 9.827629 -36.658005
25.005903 10.058097 -36.109848
24.91925 9.474967 -37.073242
24.839098 9.814873 -36.489838
24.852001 9.241875 -37.249588
24.760588 9.605522 -36.657166
24.722689 9.859245 -36.100662
24.707653 9.395622 -36.91873
24.64251 9.705376 -36.34352
24.605476 9.450981 -36.699722
24.552593 9.735588 -36.132355
24.56996 9.139701 -37.08339
24.480722 9.499381 -36.490448
24.39451 9.343131 -36.51021
24.257046 9.190421 -36.58722
24.176424 9.53234 -36.000427
24.051666 9.344109 -36.079422
24.667372 9.516228 -36.118942
24.344992 9.152885 -36.2565
25.367432 9.818656 -36.579987
25.0182 9.4887 -36.725067
25.587982 9.4481125 -37.399155
25.377562 9.261466 -37.416626
25.622915 9.71154 -37.020004
25.287628 9.403861 -37.056503
25.54583 9.79644 -36.80124
25.195198 9.5158615 -36.84108
24.860104 9.2120285 -36.87497
25.349468 9.663689 -36.8116
25.0003 9.385124 -36.84845
25.393951 9.524162 -37.031647
25.057896 9.229668 -37.06067
25.557304 9.365959 -37.471085
25.507345 9.184928 -37.685604
25.55683 9.448051 -37.389847
25.220163 9.193901 -37.37851
25.595882 9.709342 -37.086044
25.265736 9.445915 -37.072098
24.931282 9.188651 -37.059784
25.562654 9.892632 -36.760574
24.820034 9.364922 -36.741257
24.641068 9.367484 -36.407898
25.408716 10.0661545 -36.05893
24.428513 9.391045 -36.03694
25.168627 9.948722 -36.06595
25.215553 9.774651 -36.59883
25.435598 9.6581955 -37.043594
24.58327 9.529411 -36.157852
24.76004 9.399162 -36.622982
24.9658 9.278617 -37.07303
25.2442 9.181938 -37.48672
24.277203 9.24334 -36.140213
24.378023 9.299309 -36.228485
24.578009 9.1762 -36.68118
25.111847 9.940971 -36.01407
25.185343 9.770561 -36.54361
25.406893 9.650321 -36.999146
24.471931 9.377555 -36.242794
24.66509 9.248344 -36.71074
24.928461 9.142815 -37.14377
25.45343 10.0748825 -36.180786
25.140799 9.870719 -36.183746
25.365082 9.843681 -36.587814
24.841358 9.68261 -36.1333
25.08936 9.657951 -36.520325
25.342379 9.633842 -36.903687
24.585314 9.517754 -36.05716
24.78023 9.487602 -36.48106
25.070333 9.467278 -36.837963
25.359003 9.446831 -37.196136
24.543144 9.341789 -36.33806
24.790009 9.317069 -36.724915
25.066927 9.295464 -37.09079
25.363617 9.27581 -37.443207
24.328524 9.177544 -36.30464
24.579252 9.153191 -36.688416
24.243399 9.20446 -36.060303
24.511637 9.202201 -36.47789
24.819435 9.200675 -36.862366
25.140162 9.199333 -37.23619
25.505157 9.198783 -37.574158
24.951767 9.612541 -36.37413
25.235231 9.610526 -36.78015
25.575481 9.6096115 -37.139404
25.441784 9.239128 -37.348938
25.62373 9.675896 -36.931763
25.570898 9.731377 -36.694973
25.507536 9.770561 -36.519485
25.019215 9.238335 -36.80655
25.353302 9.699211 -36.449615
25.575115 9.898308 -36.22731
25.102371 9.4663 -36.498825
25.301308 9.664604 -36.40547
24.815264 9.145561 -36.689865
25.538157 9.808586 -36.474636
25.063423 9.361198 -36.748806
25.34464 9.475822 -36.90947
25.241617 9.17144 -37.228527
25.232616 9.231438 -37.15692
25.556147 9.719414 -36.73439
25.062286 9.136833 -37.026978
25.33109 9.61901 -36.554718
28.260242 10.80938 -36.259857
27.810009 10.484917 -36.97375
27.719994 10.838249 -36.392776
27.345142 10.2102585 -37.438488
27.26587 10.544121 -36.86046
27.211992 10.826408 -36.300186
27.089546 9.534843 -38.143463
26.883656 10.12432 -37.48558
26.805084 10.457755 -36.90709
26.749325 10.744499 -36.345047
26.63169 9.635185 -37.890377
26.447474 10.182121 -37.245987
26.371302 10.51104 -36.669617
26.372355 10.684563 -36.14079
26.333591 9.3637 -38.097015
26.129774 9.952019 -37.437943
26.05027 10.288933 -36.857635
26.019033 10.527946 -36.30876
25.955383 9.440483 -37.887207
25.804161 9.923698 -37.260025
25.728212 10.253838 -36.681976
25.717043 10.452751 -36.144974
25.6456 9.465813 -37.696167
26.610271 10.569817 -36.077377
26.141277 10.3856735 -36.263824
25.736813 10.12365 -36.427963
28.314201 10.674613 -36.32675
27.71391 10.643363 -36.55551
27.183172 10.531059 -36.76039
26.739826 10.314079 -36.935333
26.328709 10.058647 -37.099224
25.939114 9.777213 -37.255753
27.97952 10.152397 -37.478333
27.493809 9.984428 -37.664825
27.063229 9.750175 -37.832672
26.668266 9.472649 -37.98851
26.290092 9.174613 -38.138668
28.35633 9.231377 -38.40219
27.999943 9.564079 -38.11493
27.4861 9.491692 -38.2256
27.086094 9.261344 -38.296173
28.414713 10.126274 -37.356964
27.875113 10.091911 -37.473557
27.387997 9.987296 -37.571594
26.92088 9.856681 -37.66266
26.513004 9.643608 -37.73248
26.112873 9.42028 -37.799572
25.752752 9.13964 -37.85217
27.923273 10.377799 -36.983078
27.410412 10.313468 -37.087357
26.943735 10.186637 -37.175045
26.508055 10.0175705 -37.25157
26.11495 9.78875 -37.31256
25.737562 9.537712 -37.367794
28.325033 10.58477 -36.54576
27.764015 10.589897 -36.665115
27.282187 10.487235 -36.75563
26.836706 10.3353195 -36.83293
26.407291 10.162102 -36.904434
26.008352 9.946281 -36.964706
28.229002 10.667594 -36.34636
27.689634 10.647392 -36.455994
27.193478 10.569756 -36.54991
26.770967 10.390006 -36.616547
26.326118 10.243462 -36.69171
25.921656 10.040337 -36.751846
27.903278 10.686942 -36.41803
27.414976 10.601493 -36.50677
26.961037 10.46984 -36.58287
26.51629 10.326897 -36.65573
26.097498 10.148247 -36.71895
25.717737 9.914176 -36.767456
27.91927 10.565483 -36.66479
27.42495 10.492668 -36.75325
26.949438 10.395805 -36.834915
26.527 10.225151 -36.896744
26.11392 10.04229 -36.955154
25.750584 9.788139 -36.99469
28.147852 10.2976 -37.097244
27.616877 10.279106 -37.196453
27.172426 10.140739 -37.263412
26.70386 10.03875 -37.339737
26.31291 9.826714 -37.386795
25.923681 9.612785 -37.43329
27.942837 9.940849 -37.687374
27.464384 9.852287 -37.765274
27.040491 9.687859 -37.82286
26.601894 9.546012 -37.886215
26.204353 9.346062 -37.934174
28.098522 9.365044 -38.271923
27.56257 9.359734 -38.370255
27.172083 9.148734 -38.414383
28.204927 9.312309 -38.333633
27.704504 9.293694 -38.3842
27.23931 9.225456 -38.42186
28.037369 9.569511 -38.111496
27.554972 9.5262375 -38.15558
27.12212 9.411369 -38.181152
26.688868 9.298882 -38.2072
28.244429 9.846305 -37.83755
27.771055 9.789482 -37.87802
27.299032 9.733269 -37.918457
26.887651 9.588371 -37.935974
26.484762 9.431938 -37.950424
26.083372 9.274284 -37.964508
27.992079 10.021538 -37.57419
27.496178 10.00042 -37.623516
27.067535 9.881584 -37.647476
26.623672 9.787406 -37.677658
26.240604 9.602776 -37.684494
25.881645 9.38195 -37.682003
28.093048 10.205009 -37.25914
27.599451 10.18029 -37.307465
27.13781 10.110832 -37.34401
26.681835 10.03521 -37.3788
26.29596 9.855461 -37.386627
25.904667 9.684806 -37.39673
28.178865 10.3943405 -36.937286
27.682623 10.373344 -36.986588
27.211893 10.317375 -37.026596
26.769753 10.221001 -37.055984
26.349836 10.092948 -37.077026
25.969664 9.905754 -37.082733
28.139618 10.583183 -36.613342
27.648083 10.55584 -36.66104
27.166727 10.516289 -36.705353
26.761612 10.364922 -36.720444
26.333788 10.249076 -36.744675
25.935982 10.089165 -36.757385
25.686533 9.958977 -36.759716
25.808584 10.02813 -36.759598
28.317833 10.682976 -36.261505
27.816198 10.669731 -36.312836
27.32598 10.642632 -36.360336
26.892618 10.5331955 -36.386185
26.458288 10.426994 -36.412766
26.065458 10.259331 -36.423294
26.960108 10.63958 -36.00009
26.5167 10.546806 -36.03038
26.034672 10.387444 -36.0522
25.646164 10.214347 -36.061367
26.022247 10.322807 -36.319336
26.055693 10.056571 -36.863464
26.289492 9.866447 -37.33218
26.62722 9.72271 -37.74792
25.98549 10.279839 -36.451675
26.179733 10.153861 -36.912487
26.581562 10.096184 -37.270214
27.010818 10.064812 -37.563705
25.756731 9.5748825 -37.438095
26.152233 9.515556 -37.796783
26.811739 9.541557 -38.028408
25.651186 10.080009 -36.464066
25.824415 9.946587 -36.93457
26.160557 9.866936 -37.325344
26.638456 9.833427 -37.648666
26.050976 10.356742 -36.32271
26.210344 10.214591 -36.81184
26.71393 10.122672 -37.32234
25.689596 9.5505905 -37.424744
26.15782 9.5123825 -37.761414
26.817812 9.536919 -38.00853
26.029205 10.394646 -36.017086
26.302383 10.33068 -36.471466
26.65565 10.265556 -36.892456
27.273954 10.196831 -37.203323
26.74036 10.579582 -36.258804
27.070515 10.563651 -36.59288
27.601877 10.570122 -36.77292
25.81786 10.314079 -36.07492
26.071167 10.2901535 -36.46013
26.35387 10.2693405 -36.82487
26.797071 10.265129 -37.079296
27.322151 10.269218 -37.279556
25.70523 10.050774 -36.566177
25.994324 10.030509 -36.925552
26.364817 10.01873 -37.229065
26.784286 10.011833 -37.500164
27.454868 10.03057 -37.602264
25.639374 9.821892 -36.956726
25.959614 9.804862 -37.294083
26.354366 9.795403 -37.580944
26.925438 9.803886 -37.749207
27.583454 9.820976 -37.86183
25.637012 9.614067 -37.258163
26.004982 9.601737 -37.562683
26.427664 9.594963 -37.830994
27.050833 9.60833 -37.965374
27.706345 9.624687 -38.08156
25.676197 9.429192 -37.53499
26.097733 9.422173 -37.803192
26.541733 9.41729 -38.05786
27.096664 9.423454 -38.2397
25.752842 9.265556 -37.732727
26.137468 9.254692 -38.026638
26.63465 9.255058 -38.245956
27.221586 9.264153 -38.407562
25.914526 9.199027 -37.876892
26.384916 9.200249 -38.13185
26.963028 9.2033615 -38.302822
27.467876 9.205132 -38.53473
28.426382 9.214591 -38.41261
25.968985 9.609673 -37.45575
26.397064 9.610343 -37.745148
27.018751 9.614616 -37.88086
27.618778 9.618401 -38.037247
25.648712 10.101798 -36.31749
25.940975 10.100028 -36.718475
26.345177 10.100456 -37.02803
26.839643 10.102715 -37.265656
27.445524 10.10717 -37.415833
28.193676 10.114433 -37.45581
27.130325 10.683952 -36.191864
27.660538 10.687309 -36.40454
26.019253 10.007378 -36.447372
26.492605 9.511405 -37.930847
28.16237 9.808769 -37.86522
27.717846 9.58886 -38.109207
27.24995 9.22216 -38.37616
27.822983 10.2432785 -37.214737
27.384398 10.056388 -37.452423
26.942928 9.861504 -37.69217
26.458138 9.3856125 -37.974808
27.984896 10.583 -36.589188
27.56007 10.480338 -36.813217
27.118114 10.264153 -37.054337
26.66611 9.991142 -37.304794
26.197664 9.621147 -37.570755
28.17821 10.656303 -36.24063
27.725414 10.59417 -36.475616
27.2956 10.456718 -36.7045
26.848164 10.202751 -36.95102
26.39298 9.909233 -37.204422
25.925468 9.547295 -37.469177
27.940094 10.666557 -36.27408
27.512518 10.5384445 -36.50128
27.076832 10.360465 -36.736343
26.635717 10.155083 -36.976223
26.171696 9.8005295 -37.238953
25.68552 9.311576 -37.523026
27.770039 10.600639 -36.331787
27.346243 10.504021 -36.5549
26.904331 10.281181 -36.7968
26.45838 10.042961 -37.0419
25.992058 9.674187 -37.307236
28.109684 10.701164 -36.15686
27.689146 10.621086 -36.377407
27.256319 10.454765 -36.610764
26.814365 10.231864 -36.853054
26.366987 9.983451 -37.100067
25.893623 9.563713 -37.373306
28.027098 10.650077 -36.271133
27.6064 10.57122 -36.491806
27.17358 10.407218 -36.725143
26.728476 10.162651 -36.9709
26.270864 9.841361 -37.228897
25.79189 9.384696 -37.508133
28.113443 10.64019 -36.32779
27.692928 10.562126 -36.548508
27.26401 10.426994 -36.777893
26.819685 10.185661 -37.0233
26.36414 9.876335 -37.279663
25.885508 9.417594 -37.559265
28.108974 10.608147 -36.381516
27.690012 10.543327 -36.600616
27.25831 10.386833 -36.833267
26.81714 10.169853 -37.075394
26.354195 9.805229 -37.340023
25.884035 9.408562 -37.610794
28.075815 10.63842 -36.345795
27.655195 10.559441 -36.56688
27.219181 10.368401 -36.80443
26.779629 10.163567 -37.04483
26.319853 9.821648 -37.30606
25.840937 9.359489 -37.586304
28.186773 10.727104 -36.107117
27.765171 10.634331 -36.32979
27.33512 10.483451 -36.561172
26.89823 10.291252 -36.799194
26.450623 10.031059 -37.047836
25.986988 9.668388 -37.31244
27.704248 10.720879 -36.081375
27.279032 10.604485 -36.307537
26.838074 10.375298 -36.550156
26.397024 10.160332 -36.791748
25.930456 9.769463 -37.059494
26.97418 10.509941 -36.180573
26.541239 10.347893 -36.41368
26.092134 10.075127 -36.663162
26.479883 10.346733 -36.186462
26.040468 10.144768 -36.4254
26.413033 10.366142 -36.014965
25.976444 10.183037 -36.25084
25.823715 10.121819 -36.17978
25.768383 10.067375 -36.138687
25.99786 10.165946 -36.214294
26.70921 10.455009 -36.141052
26.269585 10.226311 -36.38269
25.823345 9.962456 -36.630127
27.07028 10.550468 -36.193115
26.639608 10.380791 -36.426376
26.198006 10.140129 -36.67009
25.730227 9.720207 -36.93956
27.4007 10.655387 -36.069824
26.987959 10.536125 -36.29059
26.55143 10.321526 -36.530056
26.101856 10.0227585 -36.781967
25.631317 9.587334 -37.05391
27.051989 10.553153 -36.130966
26.621586 10.381462 -36.364304
26.181417 10.148308 -36.60675
25.716166 9.7449875 -36.873455
26.462603 10.3578415 -36.22548
26.020203 10.1101 -36.469696
26.245611 10.30474 -36.039993
25.803185 10.061576 -36.28334
25.464067 10.363518 -35.988205
25.487474 10.491997 -35.47334
25.507996 10.625725 -34.95851
25.574377 10.667046 -34.4709
25.215813 10.364372 -35.64714
25.259464 10.451958 -35.144608
25.314442 10.516289 -34.649765
25.377466 10.56414 -34.160492
25.001108 10.243767 -35.57701
25.027952 10.364922 -35.06453
25.094872 10.4049 -34.5764
25.155127 10.457939 -34.085434
25.305199 10.330254 -33.64485
24.843563 9.98217 -35.960308
24.839197 10.166679 -35.427628
24.884033 10.251151 -34.925518
24.940727 10.311272 -34.431442
25.002008 10.361748 -33.94101
25.137585 10.262505 -33.49254
24.710258 10.060478 -35.562042
24.742607 10.1703415 -35.051865
24.79735 10.234428 -34.55606
24.88877 10.2241745 -34.082138
24.966328 10.241692 -33.600952
24.61916 9.929192 -35.79666
24.654737 10.032768 -35.287155
24.687286 10.141899 -34.777344
24.750383 10.188835 -34.28656
24.83254 10.196952 -33.807495
24.96677 10.099906 -33.358047
24.547153 9.922721 -35.596508
24.574284 10.043083 -35.082138
24.628466 10.108086 -34.585144
24.70467 10.128166 -34.1019
24.797983 10.113457 -33.629074
24.959856 9.9602585 -33.194824
24.444271 9.750298 -35.933422
24.455673 9.902946 -35.407898
24.493998 10.000359 -34.900223
24.544832 10.071831 -34.401245
24.625504 10.082572 -33.920578
24.73746 10.029778 -33.458267
24.321299 9.669425 -35.929504
24.332193 9.823235 -35.403046
24.361773 9.938346 -34.889633
24.423994 9.986626 -34.396923
24.506748 9.992912 -33.917114
24.60312 9.971427 -33.44565
24.183065 9.694878 -35.470367
24.213188 9.808891 -34.956436
24.263268 9.881706 -34.45587
24.33336 9.9133835 -33.968185
24.430399 9.890067 -33.496826
24.036888 9.550774 -35.534973
24.061668 9.675713 -35.01686
24.103746 9.764823 -34.510757
24.182379 9.778984 -34.027496
24.274382 9.765678 -33.552673
23.904982 9.336784 -35.81105
23.9083 9.506278 -35.27809
23.932514 9.632317 -34.759827
24.004744 9.65966 -34.271862
24.098724 9.642326 -33.797485
24.1967 9.616692 -33.32585
23.754221 9.214591 -35.818207
23.76039 9.378288 -35.286312
23.806051 9.4603195 -34.780487
23.871635 9.50109 -34.2879
23.952555 9.510185 -33.805294
24.046642 9.492179 -33.331005
23.61744 9.222221 -35.3192
23.666761 9.296623 -34.815002
23.711252 9.380547 -34.309113
23.794146 9.385368 -33.827362
23.893034 9.35717 -33.355606
23.53999 9.146598 -34.739243
23.58323 9.233025 -34.232315
23.66994 9.22979 -33.75258
23.774689 9.189384 -33.28398
24.447044 9.869071 -34.098022
24.013962 9.524773 -34.122314
24.560621 9.484856 -33.25415
24.167292 9.205315 -33.422836
25.231628 10.068717 -33.33789
24.846216 9.779472 -33.50319
24.433289 9.524467 -33.67827
24.063498 9.217278 -33.837963
25.53708 10.256401 -33.524456
25.095493 10.035332 -33.709362
24.666643 9.800163 -33.889694
24.292923 9.498528 -34.050446
23.952095 9.156548 -34.19954
25.301338 10.184746 -33.891113
24.861843 9.96276 -34.07475
24.476772 9.675407 -34.23909
24.122856 9.350151 -34.39241
25.430494 10.32714 -34.076065
25.025578 10.063529 -34.24695
24.627745 9.792107 -34.415314
24.258327 9.4863205 -34.573624
23.915962 9.147209 -34.722393
25.600803 10.407035 -34.21913
25.165955 10.180107 -34.400146
24.746485 9.9356 -34.575684
24.380255 9.626457 -34.732452
24.013853 9.317802 -34.889267
25.51103 10.38604 -34.476624
25.092321 10.140434 -34.651413
24.71411 9.846123 -34.8119
24.319065 9.57299 -34.978302
23.99754 9.208916 -35.11885
25.530695 10.368767 -34.769547
25.12903 10.102776 -34.9373
24.72539 9.84008 -35.10573
24.376347 9.510307 -35.25499
24.028757 9.178581 -35.403732
25.379684 10.219109 -35.248886
24.980185 9.951408 -35.414658
24.620584 9.634818 -35.566467
24.255102 9.325675 -35.72032
25.397171 10.136162 -35.814346
25.008438 9.855705 -35.974926
25.08509 10.007561 -35.668808
24.736265 9.774101 -35.66234
24.35307 9.463982 -35.64505
24.037418 9.177177 -35.624863
25.415428 10.230827 -35.297775
25.054794 10.015373 -35.29593
24.710655 9.774101 -35.2874
24.358053 9.546073 -35.2823
24.04829 9.249687 -35.25952
25.48818 10.324638 -34.964508
25.127998 10.108269 -34.962326
24.780094 9.872795 -34.95517
24.432415 9.636833 -34.947876
24.111227 9.358451 -34.929596
25.385195 10.281609 -34.627518
25.008686 10.09063 -34.63208
24.66411 9.849784 -34.62358
24.342203 9.572746 -34.605667
24.039621 9.26403 -34.579544
25.552164 10.354118 -34.31343
25.192764 10.135857 -34.310837
24.83732 9.911491 -34.30664
24.497711 9.662102 -34.295864
24.171114 9.391532 -34.279617
25.285961 10.163078 -33.994152
24.928999 9.940727 -33.990494
24.59567 9.681023 -33.97702
24.265203 9.416313 -33.962265
25.607054 10.263603 -33.63951
25.23626 10.062004 -33.641388
24.891577 9.819756 -33.632492
24.55163 9.569756 -33.621582
24.237906 9.277519 -33.599594
25.346813 10.011222 -33.25154
24.980492 9.801994 -33.251312
24.645859 9.5429 -33.237854
24.332462 9.249504 -33.215363
24.83143 9.823662 -33.411514
23.859407 9.165642 -34.353714
25.213129 10.25573 -34.427017
24.515247 9.706657 -35.255707
24.304888 9.34771 -35.89026
25.52855 10.450614 -34.760498
25.168802 10.1390915 -35.50717
25.311468 10.344048 -34.102783
24.769455 9.971001 -34.946804
24.585018 9.719292 -35.600647
24.662909 9.940788 -34.267075
24.307259 9.631401 -35.012177
24.168865 9.395988 -35.640594
24.478481 9.745293 -34.09848
24.130966 9.438774 -34.83934
23.965643 9.194511 -35.4814
24.387428 9.654289 -33.67227
23.98322 9.3283 -34.44435
23.857683 9.20269 -34.204315
24.297436 9.437065 -33.453384
24.269056 9.461967 -33.58409
24.717184 9.808952 -33.529602
24.085526 9.405326 -34.417603
23.88409 9.147636 -35.077938
24.901403 10.046684 -34.291245
24.44653 9.702567 -35.083405
24.317535 9.4689865 -35.704987
25.613062 10.25872 -35.92558
25.61832 10.506278 -34.61911
25.184656 10.161552 -35.40947
25.094362 10.177238 -34.220795
24.548975 9.794242 -35.070297
24.428724 9.557793 -35.698944
25.210155 10.137199 -33.19554
24.27845 9.6200485 -34.251995
24.01771 9.334892 -34.955704
24.27191 9.427666 -33.529037
25.564205 10.388786 -35.123535
25.266762 10.258965 -34.04327
25.154253 10.195732 -34.695568
25.162457 10.145622 -35.25775
25.270395 10.106255 -35.74649
25.00934 10.0606 -34.007736
24.881702 9.99578 -34.67096
24.854506 9.941947 -35.2583
24.962849 9.902641 -35.74637
24.77088 9.879021 -33.914062
24.582972 9.807854 -34.620987
24.559635 9.754447 -35.205353
24.659687 9.714165 -35.699005
24.556684 9.71862 -33.807877
24.398489 9.650627 -34.493652
24.346453 9.59417 -35.098892
24.421333 9.551261 -35.610504
24.554768 9.597282 -33.492355
24.27076 9.516106 -34.270996
24.196081 9.457329 -34.893444
24.212336 9.408318 -35.44751
24.354185 9.37255 -35.909954
24.379599 9.436759 -33.43129
24.095821 9.355705 -34.20996
24.012983 9.296195 -34.838303
24.030962 9.247428 -35.391037
24.128677 9.207146 -35.884644
24.165768 9.283623 -33.47336
23.951782 9.210014 -34.200745
23.86073 9.149651 -34.83467
23.896612 9.135368 -34.00963
24.052862 9.229179 -33.626434
23.97525 9.2206955 -34.346497
23.956558 9.213371 -35.01198
24.052116 9.208061 -35.577423
24.586601 9.642632 -33.435837
24.380943 9.631278 -34.266693
24.370253 9.62365 -34.92639
24.508163 9.618888 -35.457397
24.675032 9.614677 -35.96216
25.391388 10.1356735 -33.279495
25.027487 10.120293 -34.245895
25.056023 10.1130295 -34.87349
25.178686 10.10778 -35.4189
25.377443 10.104057 -35.898804
28.255062 10.992912 -35.729446
27.73695 10.978874 -35.874435
27.758156 11.110526 -35.360153
27.214983 10.994926 -35.77449
27.247568 11.104118 -35.266983
27.330492 11.113213 -34.788055
26.739788 10.938285 -35.811996
26.786467 11.019524 -35.31224
26.84791 11.071037 -34.821762
26.4001 10.8040695 -35.629044
26.414747 10.949211 -35.111603
26.49549 10.962212 -34.63205
26.049932 10.641715 -35.797943
26.059572 10.797417 -35.276733
26.112753 10.865592 -34.781475
25.731985 10.598564 -35.625183
25.756575 10.724419 -35.112656
25.81261 10.786858 -34.6192
25.953058 10.680351 -34.172924
25.685406 10.618706 -34.00865
26.023972 10.424674 -33.32341
26.773235 10.677055 -33.285416
26.23111 10.572257 -33.50566
25.731407 10.419425 -33.710754
27.526472 10.82885 -33.223278
26.902473 10.817986 -33.47206
26.367668 10.704887 -33.689102
25.904125 10.509026 -33.880825
27.715334 10.886344 -33.36174
27.115934 10.846244 -33.601284
26.57036 10.74578 -33.82164
26.06319 10.602287 -34.028336
28.212105 10.916374 -33.387268
27.586884 10.904839 -33.63539
26.977364 10.879021 -33.87782
26.450249 10.758415 -34.091034
25.959024 10.597343 -34.29149
28.190863 10.941886 -33.700317
27.518358 10.988335 -33.963882
27.004814 10.849784 -34.171276
26.43986 10.775749 -34.396683
25.985987 10.570548 -34.582886
27.847235 11.010796 -34.254467
27.249674 10.972343 -34.490036
26.747362 10.8231735 -34.692062
26.25422 10.665276 -34.890778
25.804565 10.456657 -35.07419
28.406813 11.027641 -34.613785
27.781445 11.020866 -34.857285
27.243153 10.913811 -35.070267
26.731344 10.777641 -35.27391
26.244234 10.613944 -35.468853
25.811264 10.38604 -35.644913
28.151121 10.973014 -35.471313
27.575981 10.91021 -35.694702
27.082218 10.75219 -35.88983
28.403418 10.763542 -35.867905
27.920815 10.721671 -35.912014
27.406603 10.729668 -35.968994
28.045872 10.873283 -35.511948
27.537348 10.872306 -35.566925
27.078331 10.800468 -35.603073
26.654545 10.677788 -35.625748
26.22596 10.563957 -35.65065
25.717604 10.317986 -35.659103
27.975452 10.9411545 -35.154724
27.500069 10.89135 -35.196926
27.043242 10.816338 -35.232315
26.603708 10.717461 -35.26126
26.187819 10.584464 -35.281143
25.792511 10.421256 -35.293045
28.092346 10.9706955 -34.80455
27.61927 10.91674 -34.845745
27.142204 10.871452 -34.88902
26.713404 10.755852 -34.91359
26.293524 10.628349 -34.93492
25.875706 10.499198 -34.955704
27.977087 10.944572 -34.471054
27.454855 10.964836 -34.53209
27.03901 10.8283 -34.551403
26.614986 10.705619 -34.57428
26.17687 10.6061325 -34.603134
25.772993 10.455802 -34.618484
28.213932 10.917655 -34.129898
27.704588 10.9169235 -34.185623
27.226797 10.872063 -34.229412
26.793741 10.762199 -34.255783
26.350033 10.670403 -34.28679
25.947893 10.516654 -34.3013
28.35683 10.875175 -33.79364
27.831446 10.897087 -33.85573
27.342575 10.867912 -33.9039
26.882244 10.798515 -33.941177
26.462435 10.669731 -33.96251
26.055534 10.522636 -33.978878
25.658037 10.362174 -33.991653
28.27636 10.822502 -33.452957
27.746307 10.851554 -33.517147
27.274666 10.796501 -33.558594
26.812515 10.729729 -33.596695
26.388779 10.606742 -33.619675
25.996355 10.437126 -33.630142
26.936953 10.66198 -33.202347
26.519825 10.527702 -33.22235
26.10273 10.394768 -33.242615
25.705942 10.231864 -33.254776
25.978313 10.659843 -35.333557
25.837976 10.421562 -35.96669
25.788574 10.509513 -35.277832
25.974033 10.52703 -35.791824
26.301441 10.6356735 -33.59309
25.906145 10.578667 -34.347763
25.876339 10.517998 -34.936752
25.895674 10.456902 -35.50232
27.02672 10.955924 -35.057266
27.17846 10.921073 -35.51895
27.760141 10.929923 -35.700043
26.34737 10.741753 -34.264114
26.155098 10.670036 -34.972107
26.255203 10.629753 -35.46881
26.400642 10.594414 -35.9321
25.955486 10.533012 -33.69948
25.644117 10.448357 -34.49707
25.657234 10.347771 -35.623856
26.495932 10.711723 -33.458206
26.243883 10.697685 -34.327938
26.238674 10.68914 -34.98495
26.472921 10.686028 -35.439682
26.773571 10.68438 -35.838787
28.162432 10.629997 -35.853775
27.894255 10.78112 -35.69052
27.413723 10.738274 -35.939224
27.805176 10.681632 -35.485546
27.381573 10.762444 -35.69604
26.918682 10.558037 -35.947155
27.398226 10.728385 -35.48631
26.854567 10.60247 -35.77278
27.268517 10.72161 -35.39984
26.719198 10.555351 -35.692062
26.265429 10.344414 -35.9386
27.060335 10.713005 -35.411636
26.476192 10.486015 -35.726013
26.031916 10.23156 -35.970745
27.270996 10.663689 -35.328033
26.766888 10.584098 -35.591812
26.212744 10.3162155 -35.894028
27.440979 10.747246 -35.433685
26.91462 10.622124 -35.71251
26.433172 10.353324 -35.978012
27.718134 10.799796 -35.59877
27.187784 10.665092 -35.880646
28.036665 10.740653 -35.682755
27.560953 10.711723 -35.929565
27.92106 10.771538 -35.793823
28.028267 10.765495 -35.61349
27.543583 10.717705 -35.866558
27.817406 10.773186 -35.5
27.334137 10.729057 -35.751995
26.89906 10.575188 -35.98631
27.539566 10.624015 -35.353424
27.11288 10.700188 -35.56819
26.685701 10.545464 -35.79802
26.885471 10.604912 -35.238663
28.778267 10.634757 -36.44394
28.940422 10.678764 -36.08899
30.004807 9.986869 -36.726425
29.185791 10.210808 -37.025833
28.55313 10.2155075 -37.262115
29.55121 9.304679 -37.95987
28.865725 9.374259 -38.210342
29.118128 9.593192 -37.862625
28.54052 9.602409 -37.995132
29.838142 9.865288 -37.015
29.125256 10.059319 -37.19246
29.892176 10.129875 -36.530487
29.178324 10.329399 -36.706146
28.458277 10.414421 -36.871063
29.568584 10.41967 -36.26396
28.918262 10.539054 -36.41504
29.472965 10.491631 -36.06732
28.824799 10.613274 -36.216232
29.765045 10.414726 -36.00647
29.073196 10.598686 -36.169556
28.483799 10.646781 -36.295166
29.774483 10.288506 -36.263
29.059011 10.510063 -36.432526
28.452108 10.587334 -36.56227
29.371511 10.248222 -36.856567
28.692472 10.3005295 -36.993393
29.624334 9.753227 -37.347443
28.475994 9.955009 -37.58937
28.584297 9.4446335 -38.19275
28.566154 9.547417 -38.050385
29.749907 9.713005 -37.328033
28.50666 10.018424 -37.518322
28.620653 10.182976 -37.19844
29.385492 10.260002 -36.782684
28.727932 10.341239 -36.86844
29.318516 10.362724 -36.44522
28.700588 10.512077 -36.53969
29.522177 10.427848 -36.084137
28.880558 10.610343 -36.187424
31.04045 9.392265 -36.008865
31.101849 9.241814 -36.2433
30.548758 9.8786545 -36.122604
30.5034 9.706108 -36.503265
30.249784 9.633048 -36.9841
30.993935 9.227287 -36.39682
30.63917 9.217765 -37.032043
30.147137 9.889823 -36.78882
28.777454 10.809806 -35.914642
28.959126 10.788322 -33.40274
29.294365 10.803886 -33.69427
28.511986 10.973869 -33.995148
30.066343 10.638114 -33.98123
29.172071 10.873833 -34.321228
29.615438 10.738396 -34.915344
28.848772 10.893791 -35.205383
29.704311 10.523308 -35.80391
29.604904 10.513542 -35.69104
28.97697 10.6755905 -35.789413
29.85862 10.4811325 -35.24092
29.178785 10.716606 -35.359344
28.59332 10.820548 -35.442562
29.742834 10.611991 -34.899826
29.103678 10.789726 -35.00317
28.52715 10.881462 -35.083344
29.94221 10.52404 -34.5177
29.258863 10.764701 -34.638134
28.659672 10.888664 -34.72708
29.772478 10.573296 -34.203323
29.071531 10.841911 -34.331573
28.5015 10.924796 -34.409866
29.412825 10.665885 -33.94987
28.768003 10.855949 -34.05722
29.585262 10.583122 -33.602005
28.94033 10.771477 -33.70938
29.49528 10.543816 -33.26425
28.870342 10.703178 -33.364197
31.102848 9.366814 -35.92218
30.59687 9.98217 -35.80687
31.128014 9.3040695 -35.95842
30.545038 9.942497 -35.836807
30.346899 10.065055 -35.87816
31.202543 9.25518 -35.946228
31.29706 9.245537 -35.57431
31.40154 9.296684 -34.937332
25.235981 2.8010783 -32.364227
25.152046 2.4918134 -32.94757
25.055079 3.2812424 -31.967848
24.853668 2.9274213 -32.599
24.848917 2.6483073 -33.150208
24.70582 3.2108684 -32.458984
24.618494 2.9009323 -33.04277
24.511082 3.2443774 -32.671646
24.364199 3.2325363 -32.933167
24.275404 3.3972094 -32.858475
24.148808 3.4809494 -32.858536
24.599112 3.3468554 -32.560623
25.113798 3.0134203 -32.3723
24.546534 3.0008464 -33.038193
25.776758 2.1379924 -33.082672
28.425186 1.6688154 -33.10089
30.947922 3.1267014 -33.18805
29.916742 2.2658613 -33.15907
30.312635 2.5920334 -33.02594
30.671751 2.9288864 -32.89308
30.980217 3.2815473 -32.76025
29.0962 1.9107584 -32.967453
29.610239 2.2009203 -32.83426
30.06379 2.5086594 -32.70146
30.430632 2.8435593 -32.56865
30.723064 3.2023234 -32.435654
28.865528 1.9847333 -32.56392
29.430511 2.2582324 -32.431107
29.878633 2.5679853 -32.298325
30.243269 2.9039223 -32.165466
30.558666 3.2551804 -32.032623
29.846409 2.8569252 -31.79109
30.208035 3.1935954 -31.658522
29.841875 3.0225143 -31.824156
30.147356 3.3721843 -31.66583
28.852053 1.9099653 -33.150314
29.399944 2.1753464 -33.01201
29.84358 2.4764934 -32.86487
30.24106 2.7928383 -32.714096
30.545654 3.1423874 -32.554882
31.245687 3.4822924 -33.055267
24.78223 6.206108 -30.59297
24.615654 6.0190353 -30.75479
24.524416 5.7042155 -30.90959
24.158325 5.8449016 -31.20976
23.597366 6.2326584 -31.72714
24.038618 5.4977345 -31.438246
23.320648 6.0652995 -32.178543
23.69002 5.4769216 -31.851896
22.830124 6.1007004 -33.109207
23.012266 5.8991623 -32.6781
23.389406 5.292228 -32.35849
23.225246 4.803581 -32.900482
25.392883 4.0287395 -31.07736
24.92384 3.5714033 -31.820524
25.084936 4.0180583 -31.338362
24.763765 3.6172404 -32.02072
24.795109 3.9506142 -31.660536
24.489418 3.5567553 -32.334457
24.75141 4.1329265 -31.56758
24.41578 3.7272873 -32.25374
24.6897 4.2411423 -31.542402
24.363869 3.8391032 -32.22455
24.651367 4.3669353 -31.486204
24.320032 3.9626994 -32.170654
24.131582 3.6144333 -32.794174
25.08553 4.9164963 -30.803282
24.501211 4.3732224 -31.673994
24.217043 3.9872963 -32.338253
24.008705 3.6319504 -32.968536
24.613213 4.636711 -31.42645
24.223131 4.20977 -32.134674
23.993961 3.8460004 -32.774277
24.698233 4.8005295 -31.29283
24.24274 4.3483195 -32.028347
23.951155 3.9607463 -32.693375
24.760036 4.9451823 -31.166609
24.23641 4.466667 -31.93057
23.960718 4.084831 -32.589962
23.84836 3.7663493 -33.18106
24.74509 5.086418 -31.102583
24.268164 4.6251144 -31.848585
23.901388 4.2083664 -32.545013
23.782074 3.8870773 -33.139114
24.891754 5.416313 -30.928923
24.229033 4.8831716 -31.751982
23.869457 4.4686203 -32.446743
23.716516 4.1343303 -33.055023
24.512398 5.586418 -31.167494
23.983944 5.104545 -31.93524
23.664234 4.7050705 -32.61345
24.316576 6.0441203 -31.248228
23.754894 5.5485153 -32.029922
23.436161 5.148857 -32.707993
23.528801 6.081352 -32.24347
23.164331 5.6633224 -32.93965
23.021631 6.2708664 -33.167862
23.693583 6.2824016 -32.02968
23.164906 5.905937 -32.88011
24.296642 6.1339035 -31.34651
23.539276 5.6798625 -32.320694
23.252602 5.3862224 -33.04265
24.242624 5.5825725 -31.52754
23.647758 5.1847453 -32.414017
23.377298 4.897331 -33.12625
24.095493 4.9498825 -31.916945
23.67537 4.6122355 -32.708694
24.259857 4.4846725 -31.955885
23.904778 4.1692424 -32.71284
24.486378 3.9652634 -32.14822
24.10726 3.6430583 -32.915054
24.932117 3.6542284 -31.815886
24.333294 3.8960493 -32.349747
23.889704 3.7894824 -33.13321
24.247341 4.8810954 -31.692945
23.757715 4.7880783 -32.49942
24.170362 6.1035075 -31.462141
23.501797 6.0234294 -32.34897
23.109715 5.9429245 -33.107193
24.056004 6.3084025 -31.645857
23.151787 6.1526413 -33.072952
23.916637 6.1442795 -31.871794
23.94402 6.08715 -31.845076
23.212236 5.9653854 -32.952866
23.715483 6.0503464 -32.160355
23.164165 5.945854 -33.134365
23.441187 6.0253825 -32.501522
23.63877 6.072441 -32.239426
23.137901 5.9724655 -33.175125
23.396358 6.0366745 -32.58397
24.08092 6.1413493 -31.615751
23.336903 6.017814 -32.730377
24.007895 6.0981364 -31.75546
23.236656 5.9723434 -32.888245
23.356539 5.9654465 -32.680115
23.456354 5.9497604 -32.49884
23.478207 5.8062053 -32.512863
23.355679 5.6103435 -32.819717
23.524067 5.219169 -32.804596
23.743673 5.1057663 -32.450256
24.009777 5.0452194 -32.052227
23.485733 4.9471354 -33.00525
23.581657 4.993461 -32.83612
23.548105 5.015373 -32.838593
23.93702 5.046562 -32.16296
23.443121 4.950981 -33.09117
23.750792 4.7786784 -32.62587
23.929438 4.6848674 -32.379177
24.05214 4.5338054 -32.328583
23.747776 4.3032146 -32.97342
23.751657 4.1895676 -33.13156
24.062143 4.0110393 -32.722275
23.357687 5.3947673 -32.851257
23.16875 5.8724284 -33.00319
24.48957 9.110526 -31.999968
24.321274 9.003838 -32.01587
23.889736 9.12786 -32.821564
24.043318 8.98748 -32.381104
24.212233 8.816032 -31.948606
23.698536 8.961845 -33.025772
23.842985 8.840019 -32.57985
23.986553 8.720085 -32.132946
24.173473 8.511772 -31.70973
23.545397 8.755363 -33.006237
23.688896 8.635185 -32.559402
23.85432 8.470207 -32.124557
24.012804 8.3196945 -31.684996
24.244883 8.018974 -31.285185
24.49446 7.6831584 -30.89285
23.374767 8.5205 -33.047195
23.506645 8.423882 -32.593216
23.679667 8.242729 -32.162445
23.853785 8.059685 -31.731306
24.084988 7.760002 -31.330748
24.33023 7.4321823 -30.93582
23.278734 8.244255 -32.9433
23.424084 8.11956 -32.49646
23.589922 7.952873 -32.060837
23.789371 7.7173386 -31.643202
24.039705 7.3778605 -31.252287
24.356686 6.902519 -30.895277
23.088242 8.081169 -33.179077
23.22658 7.9707565 -32.72789
23.401585 7.7848434 -32.29744
23.59342 7.5645676 -31.875547
23.81539 7.282707 -31.46916
24.11382 6.8443522 -31.102995
23.113018 7.734062 -32.78308
23.288895 7.5461345 -32.35266
23.471968 7.3436203 -31.925306
23.726234 6.9948044 -31.53668
24.050663 6.5023723 -31.184385
22.910976 7.5407634 -33.170135
23.066923 7.393852 -32.72792
23.216217 7.260978 -32.281174
23.443298 6.967521 -31.87805
23.7215 6.569145 -31.501616
22.908163 7.1304245 -32.93457
23.07449 6.9620285 -32.497177
23.273998 6.725212 -32.077938
22.845146 6.6986003 -32.97444
23.055452 6.4386516 -32.561523
24.82841 8.681938 -31.629011
24.445192 8.383109 -31.795164
24.141298 7.9871745 -31.9326
23.885883 7.5302653 -32.05252
24.683874 9.005119 -32.100872
24.32792 8.6755905 -32.256912
23.993315 8.319817 -32.40524
23.7163 7.8923264 -32.532852
23.47001 7.4252243 -32.649456
24.487514 9.108695 -32.556366
24.120367 8.79467 -32.716354
23.809696 8.411186 -32.85605
23.508236 8.015556 -32.992462
23.32413 7.4721603 -33.086853
23.172295 6.8852463 -33.169796
24.23137 9.073051 -33.020905
23.881916 8.738761 -33.174408
23.768091 8.558525 -33.143173
23.547499 8.109978 -33.08017
23.374403 7.5800095 -32.996048
23.276182 6.921501 -32.878582
24.190638 8.912834 -32.777634
23.939642 8.515678 -32.72763
23.725054 8.056693 -32.6615
23.559986 7.5130534 -32.573273
24.466063 8.896781 -32.374786
24.20034 8.522636 -32.33072
23.958323 8.107964 -32.27603
24.899517 9.091117 -32.036835
24.61326 8.750175 -32.001312
24.3477 8.374381 -31.956587
24.14728 7.891105 -31.88333
25.146795 9.01342 -31.708921
24.864775 8.664604 -31.670973
24.011097 6.547416 -31.494352
23.922052 7.1778483 -31.699965
23.38055 6.6876755 -32.473587
23.1545 7.0971603 -33.102722
24.173365 9.047965 -32.91783
23.731524 8.683158 -33.11343
23.90765 8.534477 -32.603638
24.576202 8.625603 -31.624723
23.569094 8.081046 -32.734467
23.680058 7.838127 -32.429916
23.821636 7.6130905 -32.024033
23.183577 7.1973186 -32.934647
23.70734 7.1919475 -32.03769
23.156424 6.8065104 -32.901688
24.483593 7.2089763 -31.084333
23.624481 6.7169724 -32.117096
23.146011 6.3569255 -32.941696
24.399227 6.7645183 -30.953276
24.256351 7.6413493 -31.461882
23.595991 7.5710983 -32.346024
23.271332 7.4991374 -33.073288
24.076283 9.045219 -33.189804
24.481644 9.025749 -32.384598
23.815218 8.725151 -33.182537
23.98462 8.692008 -32.77678
24.030813 8.629692 -32.659027
23.71946 7.7482834 -32.348587
23.913265 7.4635544 -31.959578
23.306921 7.351066 -32.979935
23.424448 7.043144 -32.593613
23.734837 6.772331 -32.05957
23.18594 6.667045 -33.035645
24.242828 6.5710983 -31.321394
23.509012 6.4480515 -32.437424
23.788534 6.3436203 -31.964277
23.840343 6.7390676 -31.847532
23.087467 6.7208176 -33.15947
24.095715 7.0643234 -31.377638
23.290747 7.0449753 -32.74025
23.848434 7.3101115 -31.815382
23.263655 7.2941203 -32.984528
24.127632 7.5198894 -31.517942
23.412292 7.50225 -32.80258
23.682026 7.6981735 -32.302795
23.737398 7.904045 -32.450817
23.489601 8.118523 -32.980865
23.976122 8.615409 -32.60414
24.00555 8.896598 -32.99742
25.173103 6.059562 -30.325148
30.981817 3.5715864 -32.302658
30.813961 3.6259682 -31.899488
30.995575 4.0219035 -31.76573
31.1714 4.4195476 -31.631971
