-29.338844 -774.84082 262.459045
-29.856268 -774.817749 262.530792
-27.139246 -774.272522 262.268433
-27.790352 -774.430908 262.294861
-28.403234 -774.537109 262.334412
-29.010035 -774.631836 262.377136
-29.63134 -774.740784 262.416779
-30.175024 -774.750366 262.480774
-26.912775 -774.245789 262.247009
-27.496792 -774.32312 262.293182
-28.087622 -774.405518 262.33847
-28.702934 -774.514893 262.377594
-29.419125 -774.745667 262.387909
-29.973789 -774.771729 262.447906
-27.342079 -774.33075 262.348633
-27.97757 -774.472534 262.379852
-28.565241 -774.550171 262.42691
-29.177147 -774.654419 262.467896
-29.844511 -774.823669 262.493805
-27.239946 -774.404907 262.445007
-27.849115 -774.516357 262.483795
-28.517399 -774.698364 262.506134
-29.139744 -774.818115 262.543762
-29.700089 -774.85675 262.601074
-27.182617 -774.349792 262.449982
-27.806438 -774.495117 262.481567
-28.451464 -774.663391 262.50827
-29.016577 -774.725525 262.56012
-29.687647 -774.918335 262.58197
-27.076796 -774.260193 262.231964
-27.679474 -774.380798 262.269104
-28.3071 -774.529419 262.30011
-28.882315 -774.606934 262.348083
-29.507401 -774.744202 262.382538
-30.028294 -774.745911 262.448822
-27.078035 -774.128723 261.98114
-27.634266 -774.191162 262.031708
-28.220921 -774.289368 262.074249
-28.854969 -774.444397 262.103943
-29.365484 -774.438232 262.171509
-29.938435 -774.508301 262.22168
-30.492659 -774.551453 262.278412
-31.120827 -774.683899 262.314911
-26.834534 -773.960205 261.622955
-27.425247 -774.070435 261.661987
-27.964695 -774.110779 261.717773
-28.480904 -774.118225 261.781525
-29.025948 -774.159851 261.837585
-29.514769 -774.127075 261.911255
-30.078131 -774.185974 261.963867
-30.591497 -774.178955 262.032104
-31.213675 -774.305054 262.069885
-31.789885 -774.370117 262.122131
-26.492529 -773.948364 261.113953
-26.955832 -773.895996 261.190979
-27.529083 -773.984375 261.235077
-28.048914 -774.000244 261.29657
-28.544605 -773.982361 261.366211
-29.02643 -773.944397 261.440796
-29.508581 -773.904663 261.515991
-30.02532 -773.906433 261.581787
-30.5156 -773.872314 261.656158
-31.041159 -773.880005 261.7211
-31.596186 -773.921509 261.778534
-32.159416 -773.970032 261.834656
-32.716766 -774.008179 261.893494
-26.397093 -773.998291 260.547394
-26.846796 -773.929321 260.628143
-28.435617 -774.020752 260.8013
-28.86767 -773.92041 260.89032
-29.334702 -773.863159 260.969391
-29.795332 -773.795837 261.050995
-30.283709 -773.761597 261.125092
-30.751728 -773.699646 261.205872
-31.209398 -773.622864 261.290283
-31.680964 -773.561462 261.371307
-32.177956 -773.52948 261.44577
-32.745953 -773.582214 261.500946
-33.269161 -773.577087 261.569763
-26.364683 -774.132935 259.889191
-26.836893 -774.094299 259.962616
-27.38768 -774.156372 260.012299
-27.927574 -774.200989 260.066437
-28.36725 -774.112854 260.152283
-28.825865 -774.047546 260.232941
-29.255228 -773.942932 260.322998
-29.706421 -773.864624 260.407043
-30.130377 -773.750183 260.499725
-30.642654 -773.745483 260.566895
-31.0707 -773.632874 260.659485
-31.49445 -773.513489 260.753815
-31.917395 -773.391846 260.848785
-32.343697 -773.27301 260.943268
-32.804298 -773.194824 261.028473
-33.284691 -773.138916 261.108734
-33.803791 -773.127808 261.178894
-34.36364 -773.163147 261.238708
-26.209839 -774.509155 259.069061
-26.676678 -774.464111 259.143585
-27.13768 -774.409363 259.220642
-27.688412 -774.470337 259.270172
-28.185791 -774.458496 259.337433
-28.667089 -774.42334 259.410461
-29.174049 -774.419067 259.476349
-29.598806 -774.306885 259.568115
-30.014503 -774.181824 259.663055
-30.384651 -773.997803 259.772064
-30.759159 -773.818665 259.879944
-31.139351 -773.646057 259.986359
-31.569008 -773.534363 260.078583
-31.954893 -773.367065 260.18396
-32.369762 -773.23468 260.28125
-32.774303 -773.08844 260.381897
-33.1777 -772.939819 260.483215
-33.563515 -772.768799 260.589813
-34.009533 -772.669617 260.679901
-34.513474 -772.638367 260.754486
-34.990982 -772.573242 260.837128
-35.540218 -772.591187 260.90094
-36.138542 -772.664246 260.952454
-26.407499 -775.348938 258.107635
-26.980392 -775.443542 258.147858
-27.498898 -775.46228 258.206818
-28.001326 -775.457031 258.271851
-28.532984 -775.353882 258.373566
-28.96487 -775.251526 258.462402
-30.783718 -774.680603 258.88385
-31.070946 -774.388 259.018616
-31.408018 -774.158813 259.138336
-31.720234 -773.898315 259.265411
-32.048512 -773.658142 259.387695
-32.397987 -773.444214 259.503815
-32.777615 -773.267151 259.611298
-33.128262 -773.053894 259.727325
-33.515278 -772.884644 259.833099
-33.859642 -772.662903 259.951202
-34.267986 -772.518005 260.051422
-34.677917 -772.373901 260.151611
-35.059803 -772.195374 260.259888
-35.501202 -772.086609 260.352112
-36.003944 -772.048645 260.428192
-36.537212 -772.044128 260.496826
-37.16293 -772.144775 260.541687
-37.708397 -772.148621 260.60907
-32.878216 -774.077881 258.661652
-33.105206 -773.709229 258.814423
-33.355602 -773.370728 258.95993
-33.642742 -773.078186 259.094482
-33.973946 -772.839722 259.216278
-34.330822 -772.632202 259.330811
-34.669193 -772.4021 259.450684
-35.034904 -772.204529 259.562988
-35.435925 -772.048401 259.66568
-35.838108 -771.8927 259.768402
-36.23304 -771.727478 259.873413
-36.64481 -771.581055 259.974182
-37.09581 -771.479187 260.064789
-37.564785 -771.396545 260.151154
-38.272232 -771.586365 260.175262
-34.207134 -773.321899 258.45047
-34.436539 -772.957764 258.601929
-34.748615 -772.694824 258.729401
-35.070168 -772.443481 258.854126
-35.396759 -772.198181 258.977417
-35.721771 -771.950989 259.101135
-36.090225 -771.755188 259.212891
-36.501328 -771.608887 259.313141
-36.871475 -771.413696 259.424896
-37.271557 -771.252686 259.528778
-37.645584 -771.060608 259.639954
-38.08086 -770.938354 259.735077
-38.591454 -770.900757 259.810883
-39.185265 -770.955505 259.865784
-39.741192 -771.06311 259.898132
-35.033997 -773.280579 257.998749
-35.245663 -772.894165 258.155609
-35.492172 -772.551086 258.302094
-35.752579 -772.225708 258.444305
-36.054096 -771.94989 258.574768
-36.414719 -771.744141 258.688782
-36.725792 -771.479858 258.816528
-37.085686 -771.272705 258.930939
-37.479908 -771.10498 259.036224
-37.82975 -770.885132 259.153687
-38.234074 -770.727539 259.256775
-38.637398 -770.56781 259.360474
-39.095478 -770.469299 259.450165
-39.619621 -770.443787 259.523315
-40.144627 -770.416809 259.597015
-40.726894 -770.451416 259.656952
-35.927082 -772.799133 257.744354
-36.139019 -772.414185 257.900879
-36.395679 -772.08374 258.044403
-36.696705 -771.806641 258.175293
-36.969311 -771.49646 258.313904
-37.278603 -771.229797 258.442261
-37.621849 -771.002747 258.56134
-38.02771 -770.847778 258.663666
-38.40416 -770.658081 258.7742
-38.78046 -770.467529 258.884979
-39.164509 -770.285095 258.993927
-39.609528 -770.170898 259.08725
-40.059296 -770.060547 259.179871
-40.531082 -769.973267 259.267334
-41.036777 -769.921936 259.346802
-41.493797 -769.814575 259.43927
-41.923538 -769.67572 259.539062
-42.296562 -769.473572 259.653381
-42.850674 -769.467896 259.723297
-43.23291 -769.27356 259.83609
-36.747936 -772.165527 257.591766
-36.986012 -771.813293 257.740479
-37.292255 -771.542114 257.869995
-37.632542 -771.310974 257.990112
-37.930424 -771.030396 258.121796
-38.220684 -770.741333 258.255432
-38.56242 -770.511902 258.375153
-38.992947 -770.383606 258.471405
-39.369217 -770.192383 258.582367
-39.75116 -770.006897 258.692078
-40.178219 -769.87146 258.790344
-40.571136 -769.696594 258.897797
-40.983772 -769.542847 259.000488
-41.392136 -769.383301 259.104645
-41.826885 -769.251831 259.202484
-42.237103 -769.092163 259.306915
-42.681927 -768.969177 259.403107
-43.169662 -768.891235 259.489288
-43.720417 -768.870178 259.563843
-44.20237 -768.897766 259.613495
-45.250862 -768.990662 259.710327
-37.499825 -771.840149 257.360107
-37.703819 -771.448181 257.518127
-37.972828 -771.133545 257.657837
-38.274113 -770.856995 257.788544
-38.590729 -770.59845 257.915009
-38.908848 -770.341736 258.041046
-39.27776 -770.142944 258.153595
-39.69709 -770.000793 258.253082
-40.132065 -769.875122 258.348877
-40.503777 -769.677185 258.461487
-40.794102 -769.387817 258.595215
-41.152546 -769.1745 258.711426
-41.578224 -769.034973 258.810822
-41.931099 -768.81427 258.928864
-42.347546 -768.662659 259.031189
-42.781937 -768.52948 259.129456
-43.270275 -768.453247 259.214966
-43.779556 -768.465149 259.273132
-44.282436 -768.540649 259.308899
-44.741249 -768.517456 259.372772
-45.252831 -768.605286 259.405426
-45.791218 -768.746521 259.423187
-38.022491 -771.907471 256.969391
-38.181171 -771.461548 257.14032
-38.391613 -771.077942 257.296356
-38.650669 -770.752014 257.43869
-38.995762 -770.526001 257.557526
-39.30267 -770.256042 257.686707
-39.616444 -769.99408 257.813965
-39.94838 -769.752808 257.936401
-40.365467 -769.607361 258.036621
-40.702065 -769.370605 258.158081
-41.088047 -769.188782 258.266937
-41.411865 -768.937256 258.391846
-41.74696 -768.698181 258.513947
-42.059254 -768.433899 258.641785
-42.452957 -768.258606 258.749329
-42.876797 -768.115173 258.849701
-43.423321 -768.102966 258.920441
-44.023167 -768.107727 258.991852
-44.527554 -768.187622 259.026123
-44.997311 -768.189331 259.082764
-45.520874 -768.303711 259.107635
-46.016018 -768.353638 259.15097
-46.591366 -768.569641 259.147614
-38.660038 -771.456604 256.753204
-38.80442 -770.995544 256.927673
-39.056248 -770.660889 257.072144
-39.375866 -770.405151 257.197998
-39.70475 -770.160095 257.32135
-40.015995 -769.894897 257.449402
-40.376827 -769.685974 257.564331
-40.669014 -769.399353 257.697357
-41.009365 -769.166992 257.817749
-41.295757 -768.87439 257.952118
-41.619438 -768.623474 258.076813
-41.859959 -768.281006 258.222595
-42.110111 -767.950073 258.365601
-42.503979 -767.77655 258.472504
-42.985241 -767.696899 258.558044
-43.522915 -767.676208 258.630371
-44.212772 -767.813965 258.667267
-44.761524 -767.991455 258.673492
-45.257931 -768.051025 258.713501
-45.758415 -768.116028 258.752136
-46.227211 -768.110291 258.811035
-46.69735 -768.105103 258.869904
-47.235771 -768.24054 258.88916
-47.911739 -768.459412 258.896759
-39.364357 -771.345886 256.418182
-39.498524 -770.872803 256.595795
-39.714485 -770.496277 256.750397
-40.000526 -770.201294 256.885651
-40.302597 -769.92511 257.016479
-40.60265 -769.646912 257.147736
-40.913807 -769.381531 257.276001
-41.138252 -769.019104 257.426788
-41.338268 -768.630615 257.583527
-41.567139 -768.275635 257.732361
-41.776665 -767.900391 257.885712
-42.060135 -767.607544 258.019958
-42.444862 -767.425659 258.128662
-42.871929 -767.289001 258.227051
-43.410912 -767.271912 258.298279
-44.137527 -767.453674 258.324402
-44.904716 -767.825195 258.290771
-45.399342 -767.881836 258.331482
-45.869537 -767.882812 258.388184
-46.323925 -767.847656 258.455292
-46.812637 -767.883179 258.502472
-47.305569 -767.924561 258.548126
-47.786533 -767.937988 258.601898
-48.396366 -768.215454 258.581238
-40.339329 -770.30658 256.421906
-40.558735 -769.935181 256.575439
-40.834908 -769.629517 256.713409
-41.084026 -769.293884 256.858307
-41.247971 -768.863647 257.025238
-41.410671 -768.433899 257.191833
-41.538578 -767.967407 257.366791
-41.74979 -767.595215 257.519592
-42.046265 -767.317993 257.650299
-42.333469 -767.030884 257.783234
-42.759235 -766.894714 257.881409
-43.179646 -766.751587 257.981293
-45.149994 -767.70636 257.89386
-45.66993 -767.817688 257.918823
-46.134991 -767.80719 257.97879
-46.590992 -767.775146 258.045044
-47.057514 -767.763367 258.105621
-47.54501 -767.793335 258.15448
-48.021889 -767.79834 258.210571
-49.234451 -768.332703 258.174957
-50.675747 -769.30603 258.017029
-41.056606 -769.741638 256.205811
-41.243881 -769.335266 256.367706
-41.360962 -768.851685 256.547577
-45.798164 -767.880737 257.41745
-46.211094 -767.757629 257.509613
-46.653683 -767.697266 257.583862
-47.082111 -767.605347 257.667236
-47.560219 -767.616943 257.72113
-49.749783 -768.204895 257.78476
-46.060387 -767.911133 256.878418
-46.451412 -767.739746 256.984558
-46.88311 -767.655457 257.065674
-47.300323 -767.539185 257.156006
-47.78651 -767.567505 257.205017
-49.81892 -767.832397 257.359467
-50.833214 -768.526917 257.243286
-46.735035 -767.903076 256.31958
-47.130138 -767.738403 256.42392
-47.579628 -767.68927 256.494934
-50.035999 -767.846436 256.736267
-50.628483 -768.075317 256.728577
-51.218426 -768.293457 256.724335
-51.882355 -768.654602 256.679657
-47.162739 -768.453491 255.474716
-47.529106 -768.222168 255.598602
-49.708698 -767.798096 256.006073
-50.219334 -767.863037 256.044678
-50.73325 -767.931213 256.08252
-51.272926 -768.048218 256.106537
-51.817947 -768.171814 256.128937
-49.688145 -768.088684 255.175537
-50.116783 -767.983459 255.263031
-50.566803 -767.921143 255.338165
-51.048885 -767.922546 255.394974
-51.550755 -767.961487 255.441086
-49.48082 -769.578125 253.912994
-49.650944 -768.921997 254.162064
-49.965176 -768.573425 254.320847
-50.37289 -768.420959 254.422256
-50.762703 -768.231384 254.5345
-51.199234 -768.13739 254.618912
-50.39164 -770.065308 253.154755
-50.562263 -769.206299 253.475739
-50.842319 -768.784119 253.656586
-51.096359 -770.083984 252.57103
-51.254028 -769.401123 252.829514
-51.662418 -770.118835 252.036255
-52.065548 -770.139587 251.576309
-51.600208 -770.404175 252.12706
-51.81213 -769.924561 252.20256
-51.286858 -770.930786 252.358475
-51.26638 -770.377747 252.411926
-51.46489 -769.894348 252.486038
-51.163902 -770.910767 252.587097
-51.059547 -770.330688 252.632523
-51.260132 -769.848145 252.706802
-51.505917 -769.379333 252.785431
-50.904461 -770.853577 252.812241
-50.809074 -770.276367 252.858322
-50.994259 -769.789246 252.931061
-51.271908 -769.330811 253.01268
-50.645374 -770.998718 253.09642
-50.504047 -770.40625 253.138062
-50.520855 -769.866028 253.194717
-50.801746 -769.40979 253.276749
-50.150459 -770.728516 253.489563
-50.040588 -770.147278 253.533875
-50.172794 -769.644836 253.601547
-50.447979 -769.163635 253.685562
-49.951099 -771.334229 253.881805
-49.594143 -770.670532 253.902039
-49.421745 -770.069824 253.940033
-49.515697 -769.556519 254.003998
-49.026264 -770.842224 254.316818
-48.627438 -770.167542 254.332108
-48.65007 -769.632751 254.388916
-48.178371 -770.931152 254.784958
-47.7668 -770.252319 254.797974
-47.647335 -769.672546 254.840027
-46.330387 -769.605896 255.366272
-40.977062 -769.977295 256.227539
-41.215576 -769.53363 256.304474
-41.347595 -769.053467 256.370117
-38.748207 -772.435303 256.581604
-38.779636 -771.921814 256.636383
-38.958145 -771.461975 256.706848
-39.171783 -771.014404 256.781097
-39.606445 -770.644348 256.879211
-40.005569 -770.260132 256.973633
-40.42355 -769.880859 257.070282
-40.928688 -769.529785 257.176575
-41.149033 -769.079834 257.252014
-41.412567 -768.643982 257.332214
-41.447224 -768.131165 257.38739
-41.662365 -767.678589 257.462341
-41.986225 -767.26123 257.549316
-42.340389 -766.852478 257.639771
-37.017712 -773.06958 257.26416
-37.173973 -772.60498 257.332336
-37.3885 -772.161804 257.406921
-37.641804 -771.732361 257.485779
-37.980968 -771.333191 257.574188
-38.377785 -770.953491 257.669067
-38.850029 -770.598938 257.772491
-39.409683 -770.27301 257.885803
-39.884155 -769.914917 257.989868
-40.450657 -769.586426 258.104431
-41.066883 -769.272339 258.224823
-41.451065 -768.876892 258.319427
-41.826416 -768.47699 258.413147
-42.442799 -768.15564 258.534271
-35.089581 -773.9245 257.94696
-35.238724 -773.461182 258.014587
-35.51199 -773.044739 258.096161
-35.756199 -772.61676 258.17453
-36.091496 -772.221863 258.263214
-36.629318 -771.900146 258.374908
-37.029575 -771.526001 258.471252
-37.572979 -771.201843 258.584045
-38.064148 -770.856567 258.691101
-38.769241 -770.584839 258.822845
-39.494213 -770.316528 258.957214
-40.26228 -770.059631 259.096893
-41.161633 -769.843994 259.252075
-41.892944 -769.566284 259.388306
-42.627377 -769.286011 259.525269
-33.701283 -774.811218 258.326233
-33.72086 -774.301514 258.383575
-33.90313 -773.85199 258.461029
-34.177334 -773.435486 258.549988
-34.460434 -773.021362 258.640137
-35.014256 -772.702454 258.764313
-35.584839 -772.386902 258.890869
-35.997917 -772.013794 258.997864
-36.570362 -771.694031 259.125183
-37.121429 -771.364258 259.250061
-37.843628 -771.089966 259.396942
-36.153851 -774.697876 257.768738
-35.595051 -773.973328 257.756042
-35.553432 -773.438721 257.806488
-35.758556 -772.993103 257.887268
-36.030277 -772.570557 257.976318
-36.431957 -772.192627 258.081573
-36.755943 -771.786255 258.177338
-37.212128 -771.424072 258.289703
-37.768856 -771.094116 258.414856
-38.294716 -770.751221 258.536407
-38.946579 -770.447876 258.674072
-39.661503 -770.16217 258.820038
-40.487289 -769.909119 258.980377
-41.583843 -769.528503 259.19809
-42.550396 -769.098755 259.400055
-37.145733 -773.292969 257.196533
-37.16444 -772.777588 257.255035
-37.339275 -772.317383 257.33255
-37.59692 -771.885681 257.420227
-37.823681 -771.442749 257.504211
-38.227894 -771.059448 257.610138
-38.782795 -770.725098 257.734894
-39.274979 -770.367371 257.852112
-39.770706 -770.008667 257.970032
-40.333897 -769.6698 258.096619
-40.819145 -769.303162 258.213715
-41.372185 -768.956055 258.339539
-41.845818 -768.581238 258.455658
-42.387981 -768.28717 258.574036
-38.505112 -772.311768 256.713654
-38.579517 -771.813904 256.77948
-38.82642 -771.375244 256.866241
-39.092064 -770.942322 256.955383
-39.445755 -770.538025 257.055359
-39.899479 -770.165588 257.167786
-40.405121 -769.808228 257.286804
-40.844475 -769.427063 257.397888
-41.222969 -769.024597 257.501617
-41.475082 -768.580444 257.589813
-41.588028 -768.091736 257.660767
-41.924713 -767.673035 257.759613
-42.330219 -767.274414 257.867218
-39.967728 -771.048157 256.363434
-40.202255 -770.601868 256.449249
-40.51067 -770.179443 256.544128
-40.829712 -769.759521 256.640381
-41.112904 -769.326904 256.732391
-41.272335 -768.853699 256.809326
-41.305016 -769.651794 256.101196
-46.903889 -770.776245 255.211594
-46.4786 -770.099854 255.22168
-46.452713 -769.553894 255.27887
-47.457592 -770.344788 254.897644
-47.315411 -769.75946 254.941589
-47.389271 -769.232422 255.012207
-48.190319 -770.431946 254.607224
-48.04916 -769.845581 254.651733
-48.07304 -769.312866 254.715469
-49.159424 -771.159058 254.278091
-48.741947 -770.480713 254.29129
-48.710842 -769.928467 254.349136
-49.703686 -771.092285 253.950272
-49.385948 -770.445618 253.975693
-49.238491 -769.855774 254.020493
-49.37949 -769.358215 254.098572
-49.911285 -770.786499 253.599686
-49.826008 -770.215027 253.652069
-49.944168 -769.709106 253.727661
-50.11515 -769.21991 253.809311
-50.47311 -770.99408 253.295441
-50.212189 -770.365417 253.328247
-50.294018 -769.847656 253.399796
-50.523476 -769.376526 253.488174
-50.732887 -770.97113 253.075027
-50.5196 -770.357727 253.113403
-50.583977 -769.834412 253.182968
-50.831978 -769.36908 253.273346
-50.815144 -770.89978 252.939621
-50.738846 -770.330688 252.993484
-50.853111 -769.823303 253.06871
-51.061363 -769.345581 253.154556
-51.200371 -771.398376 252.825531
-50.919514 -770.761902 252.856827
-50.830219 -770.189331 252.909348
-51.009361 -769.703186 252.99202
-51.270866 -769.242554 253.08403
-51.228802 -771.341248 252.681061
-50.948368 -770.705505 252.71257
-50.958279 -770.165344 252.776321
-51.183552 -769.694214 252.864197
-51.313038 -771.050171 252.480713
-51.224876 -770.4776 252.533722
-51.335197 -769.969788 252.608704
-51.573692 -769.502686 252.697998
-51.452789 -770.526062 252.238831
-51.572903 -770.021545 252.314911
-51.883888 -770.096191 252.012634
-26.330715 -774.059875 260.764343
-26.800047 -774.115417 260.546112
-27.288931 -774.204651 260.320038
-27.796909 -774.326233 260.086273
-28.304987 -774.443726 259.852325
-28.766405 -774.470032 259.636627
-29.278072 -774.586426 259.40094
-29.837328 -774.786438 259.146271
-30.3848 -774.959656 258.896057
-26.586946 -774.048645 261.015533
-27.057755 -774.106079 260.796906
-27.541149 -774.18396 260.573212
-28.002701 -774.21698 260.357941
-28.447456 -774.215332 260.149109
-28.995983 -774.404419 259.899414
-29.4519 -774.41687 259.685944
-29.935772 -774.477905 259.461334
-30.39455 -774.489563 259.24649
-30.925186 -774.628967 259.003143
-31.364748 -774.600952 258.795685
-26.708296 -774.033997 261.258179
-27.175665 -774.084717 261.041077
-27.624084 -774.09613 260.831207
-28.078928 -774.116821 260.618713
-28.556887 -774.177856 260.397034
-29.061663 -774.285461 260.164764
-29.507059 -774.278931 259.955566
-29.961302 -774.286072 259.742767
-30.389944 -774.24353 259.539948
-30.872723 -774.29718 259.315704
-31.372618 -774.378418 259.084625
-31.85284 -774.420593 258.861115
-26.701122 -774.069214 261.492157
-27.159346 -774.102905 261.278809
-27.586651 -774.074585 261.077332
-28.044617 -774.101868 260.863831
-28.473921 -774.072266 260.661346
-28.907085 -774.047485 260.457275
-29.460535 -774.24353 260.206116
-29.87738 -774.182495 260.008148
-30.278612 -774.090759 259.816223
-30.72019 -774.070923 259.608398
-31.204865 -774.126709 259.383575
-31.636917 -774.084229 259.179291
-32.187775 -774.252197 258.928162
-32.615986 -774.197144 258.725128
-26.76178 -774.11145 261.672913
-27.20113 -774.108765 261.467041
-27.652863 -774.126953 261.256256
-28.080704 -774.097046 261.054657
-28.500597 -774.049805 260.856018
-28.957491 -774.069519 260.642883
-29.359995 -773.985291 260.450836
-29.854052 -774.068359 260.222992
-30.25281 -773.972778 260.032227
-30.694902 -773.954712 259.824432
-31.173483 -774.000183 259.602234
-31.595211 -773.940002 259.402191
-32.063084 -773.960388 259.18396
-32.52713 -773.970947 258.967102
-32.98838 -773.973633 258.751221
-33.407356 -773.89917 258.551849
-33.810963 -773.795959 258.35849
-27.047462 -774.165649 261.772278
-27.485994 -774.159973 261.566803
-27.91939 -774.141846 261.36319
-28.325806 -774.070312 261.169922
-28.758118 -774.045532 260.966522
-29.17259 -773.985046 260.769958
-29.598139 -773.943054 260.569
-30.01906 -773.89032 260.369751
-30.476772 -773.902893 260.156067
-30.878511 -773.81073 259.964111
-31.313414 -773.776855 259.759125
-31.778015 -773.794067 259.542419
-32.186855 -773.708679 259.347412
-32.635769 -773.692749 259.136627
-33.083927 -773.672852 258.926056
-33.515648 -773.621643 258.721802
-33.931419 -773.540344 258.523743
-34.358768 -773.477417 258.321045
-34.773087 -773.389893 258.123383
-35.161266 -773.255859 257.935974
-35.548332 -773.081543 257.747375
-27.174662 -774.230835 261.948029
-27.592926 -774.185852 261.750488
-28.057621 -774.22699 261.534943
-28.434835 -774.099609 261.353027
-28.843447 -774.030029 261.158905
-29.250929 -773.956482 260.965179
-29.685467 -773.931213 260.760864
-30.114965 -773.894287 260.558411
-30.532953 -773.833984 260.360321
-30.947927 -773.766113 260.1633
-31.35247 -773.677551 259.970276
-31.779299 -773.627319 259.768494
-32.222355 -773.603943 259.560303
-32.616432 -773.491089 259.371124
-33.044239 -773.436401 259.168671
-33.459179 -773.356995 258.971191
-33.884354 -773.29364 258.769623
-34.283703 -773.183411 258.578094
-34.737148 -773.165039 258.365234
-35.158813 -773.0896 258.164764
-35.544708 -772.951294 257.978333
-35.931847 -772.813965 257.791321
-36.356983 -772.73938 257.589294
-36.73539 -772.584656 257.40564
-37.103806 -772.412292 257.225891
-27.057533 -774.361938 262.240875
-27.475391 -774.316711 262.04364
-27.877577 -774.239441 261.852325
-28.30266 -774.203857 261.652161
-28.695595 -774.105347 261.464233
-29.079063 -773.987549 261.279907
-29.50276 -773.94342 261.079987
-29.923527 -773.891663 260.881104
-30.339853 -773.82959 260.683838
-30.772253 -773.794983 260.480286
-31.165773 -773.687317 260.291687
-31.565777 -773.589966 260.100525
-31.955324 -773.47229 259.913361
-32.365917 -773.390808 259.717926
-32.78698 -773.326111 259.518341
-33.191483 -773.230286 259.325134
-33.603455 -773.145874 259.128937
-34.023216 -773.073303 258.929626
-34.398396 -772.92157 258.747681
-34.812401 -772.835754 258.550476
-35.239136 -772.769897 258.348175
-35.619999 -772.624023 258.163849
-36.024292 -772.516663 257.970215
-36.380291 -772.32666 257.795563
-36.807442 -772.254883 257.592834
-37.22662 -772.167969 257.393158
-37.627033 -772.048218 257.200836
-37.99633 -771.875916 257.020721
-38.361515 -771.696167 256.842224
-38.761078 -771.57135 256.650085
-39.157955 -771.440857 256.458923
-27.202021 -774.500549 262.437134
-28.074995 -774.308167 262.020874
-28.488634 -774.25 261.825104
-28.869806 -774.128601 261.641693
-29.257538 -774.01825 261.455719
-29.6572 -773.928772 261.265106
-30.061756 -773.84668 261.07251
-30.515844 -773.853882 260.860718
-30.92531 -773.776733 260.666077
-31.288136 -773.613098 260.489349
-31.706806 -773.5495 260.291016
-32.108299 -773.453064 260.099213
-32.480526 -773.302856 259.918701
-32.884884 -773.208679 259.725677
-33.280315 -773.097168 259.536041
-33.67606 -772.984741 259.346222
-34.071541 -772.870422 259.156464
-34.452805 -772.730103 258.972168
-34.853554 -772.622192 258.780212
-35.233734 -772.4776 258.596252
-35.629005 -772.357544 258.406311
-36.006943 -772.206848 258.223145
-36.394375 -772.071106 258.036163
-36.759487 -771.896912 257.857941
-37.168606 -771.794922 257.662323
-37.540184 -771.629456 257.481445
-37.908943 -771.458374 257.301666
-38.311596 -771.341797 257.108429
-38.707943 -771.213501 256.917633
-39.112926 -771.097778 256.723358
-39.586075 -771.089783 256.502014
-39.964455 -770.927979 256.318115
-28.274601 -774.510986 262.249298
-28.730923 -774.363525 262.029572
-29.078724 -774.178162 261.858826
-29.475983 -774.084961 261.669128
-29.86059 -773.966614 261.484222
-30.257536 -773.869751 261.294495
-30.6658 -773.792175 261.100372
-31.05864 -773.68457 260.912109
-31.500273 -773.664124 260.704956
-31.861082 -773.495361 260.5289
-32.219856 -773.322266 260.353577
-32.596348 -773.180054 260.171356
-32.990936 -773.068909 259.982117
-33.403587 -772.988098 259.785797
-33.795101 -772.868469 259.597595
-34.180943 -772.737671 259.41153
-34.573425 -772.617188 259.222839
-34.960365 -772.485779 259.036255
-35.341087 -772.342529 258.85202
-35.713806 -772.18457 258.670868
-36.066593 -771.992065 258.497467
-36.440655 -771.834778 258.315735
-36.807808 -771.664978 258.136658
-37.186821 -771.514038 257.952881
-37.566841 -771.363708 257.768646
-37.958794 -771.231873 257.579712
-38.323456 -771.054321 257.401428
-38.6758 -770.856018 257.227966
-39.04829 -770.689636 257.046539
-39.456203 -770.579041 256.851105
-39.830894 -770.414062 256.668701
-40.266209 -770.343994 256.462311
-40.65057 -770.191711 256.27597
-29.032261 -774.564819 262.262878
-29.376255 -774.370728 262.093414
-30.022665 -774.071045 261.778015
-30.400127 -773.937561 261.595734
-30.797182 -773.838867 261.405914
-31.164888 -773.68512 261.227264
-31.536896 -773.538269 261.046936
-31.933193 -773.434326 260.857208
-32.309895 -773.29364 260.674957
-32.718685 -773.209229 260.480347
-33.079994 -773.038879 260.303894
-33.462074 -772.904419 260.119415
-33.860828 -772.797974 259.928467
-34.186813 -772.563416 259.765564
-34.582653 -772.449707 259.575623
-34.962963 -772.307922 259.391632
-35.378361 -772.225037 259.194
-35.743214 -772.054382 259.0159
-36.119793 -771.902832 258.833191
-36.5 -771.756348 258.649048
-36.849255 -771.557129 258.476929
-37.201992 -771.36322 258.303406
-37.572906 -771.198792 258.122772
-37.938591 -771.024841 257.944122
-38.307064 -770.854736 257.764343
-38.697025 -770.718567 257.576141
-39.03775 -770.50177 257.407166
-39.42767 -770.363525 257.218872
-39.814392 -770.218933 257.031769
-40.192455 -770.059448 256.847992
-40.522827 -769.823853 256.683014
-40.865322 -769.607117 256.513214
-41.148869 -769.298279 256.366699
-29.97909 -774.478088 262.193268
-30.309662 -774.256287 262.028839
-30.653564 -774.059143 261.859344
-31.02972 -773.920837 261.677582
-31.395281 -773.762146 261.499786
-31.76375 -773.60791 261.320862
-32.123734 -773.437561 261.145142
-32.485111 -773.268921 260.968842
-32.842403 -773.092346 260.794067
-33.228657 -772.966431 260.608154
-33.595669 -772.805359 260.429596
-33.996845 -772.703308 260.237854
-34.356281 -772.527039 260.062103
-34.730873 -772.376343 259.880493
-35.151894 -772.304504 259.680939
-35.522289 -772.144226 259.500824
-35.884014 -771.968262 259.324005
-36.258713 -771.813599 259.142151
-36.604237 -771.608948 258.971558
-36.956165 -771.414673 258.798462
-37.289085 -771.188293 258.632721
-37.681332 -771.05957 258.443909
-38.03323 -770.863464 258.270721
-38.410057 -770.707397 258.08783
-38.788689 -770.553284 257.904175
-39.150131 -770.370483 257.727173
-39.515907 -770.193848 257.548431
-39.873695 -770.003723 257.372803
-40.242783 -769.830872 257.192719
-40.614067 -769.660522 257.011719
-40.919933 -769.387085 256.856384
-41.145607 -768.989197 256.732605
-31.220455 -774.20282 261.99411
-31.581137 -774.03363 261.818146
-31.920551 -773.825134 261.650208
-32.251343 -773.60083 261.485535
-32.605152 -773.417847 261.312103
-32.991707 -773.292664 261.126221
-33.349312 -773.11499 260.951263
-33.673088 -772.876953 260.789215
-34.011208 -772.664246 260.621674
-34.396584 -772.533569 260.436066
-34.740147 -772.329346 260.266388
-35.122955 -772.192261 260.081665
-35.515514 -772.07074 259.893127
-35.891369 -771.919495 259.710968
-36.27161 -771.774658 259.527069
-36.640236 -771.609253 259.347595
-36.995766 -771.421082 259.173096
-37.320099 -771.180542 259.010651
-37.722515 -771.068909 258.818024
-38.076981 -770.877136 258.64389
-38.370697 -770.585632 258.493256
-38.75988 -770.449585 258.305603
-39.117237 -770.260986 258.130249
-39.522076 -770.147827 257.936432
-39.817486 -769.858765 257.785126
-40.264866 -769.810974 257.574585
-40.605751 -769.59314 257.405518
-40.903469 -769.307373 257.253326
-41.134769 -768.91864 257.127106
-41.303577 -768.434753 257.025452
-32.403641 -774.037476 261.845032
-32.739395 -773.819946 261.678284
-33.078548 -773.608337 261.510254
-33.382313 -773.333496 261.355621
-33.770924 -773.209351 261.168854
-34.062969 -772.914124 261.018646
-34.432358 -772.754883 260.839111
-34.790142 -772.574585 260.66394
-35.130753 -772.364014 260.4953
-35.504169 -772.209534 260.314117
-35.853497 -772.012939 260.14209
-36.205933 -771.821228 259.968842
-36.558685 -771.629517 259.795471
-36.905144 -771.426697 259.624451
-37.275387 -771.263123 259.444305
-37.614902 -771.047791 259.27594
-37.9851 -770.882751 259.095734
-38.388988 -770.771912 258.902527
-38.738903 -770.571777 258.730042
-39.058586 -770.322205 258.569214
-39.430351 -770.156494 258.388245
-39.762371 -769.92627 258.222626
-40.10384 -769.710938 258.053345
-40.4356 -769.479919 257.887817
-40.749741 -769.221069 257.729126
-41.047321 -768.936401 257.576874
-41.269672 -768.535339 257.453918
-41.414249 -768.01593 257.361389
-41.531555 -767.457764 257.279633
-33.958221 -773.613159 261.510712
-34.296104 -773.396484 261.342957
-34.605343 -773.129395 261.186005
-34.908337 -772.851807 261.031433
-35.251591 -772.644531 260.861664
-35.583912 -772.418152 260.696014
-35.907097 -772.176025 260.533813
-36.267265 -771.996948 260.357574
-36.58844 -771.751221 260.196167
-36.95491 -771.581787 260.017487
-37.273849 -771.332153 259.856873
-37.623363 -771.133423 259.684631
-37.985092 -770.954407 259.50766
-38.321198 -770.732605 259.340485
-38.687077 -770.559204 259.161896
-39.05088 -770.381714 258.984039
-39.401257 -770.181702 258.81134
-39.776173 -770.02063 258.62915
-40.142887 -769.845459 258.450073
-40.455288 -769.583374 258.291901
-40.745468 -769.286438 258.142303
-41.043644 -769.002625 257.989685
-41.31184 -768.672546 257.848663
-41.475243 -768.18103 257.748291
-41.677002 -767.751404 257.633179
-41.851364 -767.28186 257.528809
-35.634411 -772.920898 261.072174
-35.950165 -772.663818 260.912598
-36.267838 -772.410278 260.75235
-36.635323 -772.241699 260.573273
-36.934231 -771.95636 260.420105
-37.246258 -771.693604 260.261993
-37.569393 -771.449768 260.099701
-37.895069 -771.210205 259.936432
-38.209381 -770.951904 259.777466
-38.545544 -770.729736 259.610229
-38.910835 -770.554871 259.431854
-39.283703 -770.391479 259.250519
-39.642387 -770.204346 259.074585
-39.992523 -770.002869 258.901917
-40.334526 -769.787903 258.7323
-40.666927 -769.557373 258.566376
-40.937801 -769.229614 258.424072
-41.254314 -768.974426 258.264252
-41.47044 -768.562866 258.143127
-41.647701 -768.093018 258.037048
-41.813549 -767.608093 257.935516
-42.102589 -767.314575 257.78653
-42.306553 -766.892029 257.670471
-37.264652 -772.380676 260.624664
-37.565361 -772.096313 260.47049
-37.865635 -771.811829 260.316498
-38.180119 -771.551514 260.157166
-38.49691 -771.295227 259.996979
-38.819164 -771.048157 259.834747
-39.133652 -770.788452 259.675446
-39.430706 -770.50061 259.522797
-39.756279 -770.259399 259.359283
-40.10672 -770.058105 259.18634
-40.451393 -769.847107 259.015533
-40.763554 -769.584167 258.857147
-41.073647 -769.318115 258.699554
-41.320702 -768.953369 258.566132
-41.559555 -768.577148 258.435913
-41.812256 -768.223938 258.300476
-42.025806 -767.811584 258.180115
-42.25465 -767.424561 258.053986
-42.50919 -767.078247 257.91806
-50.96769 -768.640076 254.074387
-38.661392 -771.816589 260.245392
-38.984966 -771.569214 260.082428
-39.248783 -771.223755 259.942017
-39.556683 -770.951538 259.785034
-39.825176 -770.615723 259.642975
-40.147747 -770.368164 259.480469
-40.465435 -770.112854 259.319794
-40.765743 -769.829956 259.165771
-41.050682 -769.523132 259.017609
-41.326157 -769.202148 258.873077
-41.648693 -768.955688 258.710632
-41.849274 -768.519348 258.594818
-42.054279 -768.092041 258.477417
-42.304192 -767.735901 258.342926
-42.593418 -767.441101 258.19339
-42.867935 -767.124512 258.049561
-49.910198 -768.410156 254.851334
-50.398701 -768.37439 254.622955
-50.909542 -768.367188 254.385696
-40.023636 -771.040588 259.871918
-40.338203 -770.777954 259.712189
-40.619194 -770.461548 259.565155
-40.889469 -770.128906 259.422241
-41.162071 -769.800903 259.278503
-41.432854 -769.471008 259.135498
-41.707348 -769.147949 258.991119
-41.918949 -768.727539 258.870758
-42.216381 -768.442383 258.717773
-42.474152 -768.096375 258.579956
-42.728455 -767.746216 258.443512
-43.015533 -767.447144 258.294586
-43.687725 -766.998474 257.959198
-50.103752 -768.210205 255.049454
-50.645302 -768.24884 254.800476
-51.191822 -768.290955 254.549393
-41.028202 -770.762146 259.675659
-41.194221 -770.260681 259.57196
-41.439461 -769.887939 259.438446
-41.687241 -769.520691 259.304047
-41.958279 -769.191284 259.160919
-42.175159 -768.778381 259.038422
-42.488304 -768.516663 258.879395
-42.708614 -768.111938 258.755737
-43.005249 -767.825989 258.603058
-43.310017 -767.552795 258.447327
-43.709888 -767.424011 258.25528
-46.629482 -767.820618 256.924591
-47.094666 -767.77179 256.706573
-47.627815 -767.819275 256.462219
-49.82341 -768.063171 255.458603
-50.400135 -768.154053 255.196411
-50.946098 -768.197693 254.945938
-51.53027 -768.291077 254.680435
-41.417274 -770.546936 259.773346
-41.640591 -770.13739 259.647888
-41.855453 -769.71637 259.525726
-42.119381 -769.374451 259.385132
-42.296646 -768.898254 259.277405
-42.6049 -768.628113 259.120178
-42.880802 -768.308289 258.97525
-43.228436 -768.099304 258.803101
-43.523891 -767.810242 258.650787
-43.90234 -767.647522 258.466888
-44.438644 -767.721863 258.222778
-44.971378 -767.787109 257.979828
-45.769623 -767.950317 257.619324
-46.221722 -767.887024 257.406708
-46.644337 -767.778137 257.205292
-47.105934 -767.724548 256.988831
-47.640152 -767.77417 256.744354
-49.856934 -768.050842 255.733643
-50.393818 -768.085999 255.487137
-50.948101 -768.14209 255.233719
-51.517761 -768.215942 254.974136
-41.93145 -770.397339 259.820374
-42.120518 -769.933533 259.707703
-42.359734 -769.551086 259.576294
-42.573238 -769.130005 259.454651
-42.835453 -768.786621 259.314728
-43.134945 -768.501831 259.160797
-43.474117 -768.278381 258.991852
-43.794754 -768.026367 258.829895
-44.171764 -767.859863 258.646576
-44.69278 -767.909668 258.408447
-45.21191 -767.953125 258.170868
-45.737019 -768.002136 257.930817
-46.138371 -767.864075 257.737793
-46.610394 -767.828796 257.51767
-47.011757 -767.687378 257.324463
-47.512516 -767.689453 257.093109
-49.726273 -767.968201 256.085052
-50.261082 -768.001953 255.839691
-50.824215 -768.072144 255.583221
-51.406368 -768.1651 255.319214
-51.937496 -768.1828 255.074677
-42.748383 -769.78656 259.74173
-42.832264 -769.355347 259.679199
-43.117493 -769.046021 259.530365
-43.400425 -768.733887 259.382446
-43.754539 -768.531799 259.207703
-44.052959 -768.244019 259.053986
-44.472252 -768.140259 258.854553
-44.955208 -768.130859 258.630951
-45.42252 -768.095154 258.413116
-45.875824 -768.036011 258.200439
-46.305557 -767.939636 257.996613
-46.743904 -767.854065 257.789398
-47.156921 -767.72937 257.591736
-47.672016 -767.752014 257.355042
-49.859131 -767.990906 256.35791
-50.419994 -768.061401 256.102722
-50.985081 -768.133911 255.845673
-51.510296 -768.146606 255.60376
-51.994858 -768.099365 255.377304
-43.074497 -769.547607 259.936005
-43.376812 -769.263367 259.78064
-43.711838 -769.030029 259.613037
-44.051044 -768.802979 259.443817
-44.392235 -768.578613 259.273865
-44.750885 -768.380493 259.09729
-45.201988 -768.32135 258.885834
-45.635704 -768.233826 258.680817
-46.016945 -768.065979 258.495514
-46.474743 -768.010803 258.281189
-46.869812 -767.860718 258.090515
-47.324467 -767.796753 257.877136
-47.822578 -767.794006 257.647156
-50.034866 -768.067078 256.641541
-50.62207 -768.174255 256.376556
-51.134464 -768.171631 256.139984
-51.671474 -768.200439 255.893784
-52.157318 -768.15448 255.667023
-44.136604 -769.351685 259.789032
-44.407951 -769.017822 259.645142
-44.746952 -768.788086 259.475952
-45.130447 -768.625671 259.29007
-45.522423 -768.474976 259.100922
-45.935108 -768.354187 258.9039
-46.303196 -768.165222 258.723602
-46.745304 -768.085327 258.51535
-47.18425 -767.998718 258.308167
-47.652931 -767.953674 258.0896
-50.30666 -768.134155 256.87674
-50.989941 -768.37616 256.57547
-51.550327 -768.439087 256.32074
-51.978413 -768.312805 256.116333
-44.937122 -769.363098 259.750305
-45.201511 -769.016602 259.608917
-45.616779 -768.89978 259.411102
-45.950298 -768.658203 259.243835
-46.325256 -768.478516 259.061035
-46.717499 -768.323669 258.871674
-47.117031 -768.178467 258.679474
-47.57856 -768.123169 258.463867
-48.080708 -768.125061 258.232819
-50.258774 -768.345093 257.242645
-51.103096 -768.817627 256.880798
-50.530174 -768.440369 257.123108
-51.273739 -768.767029 256.799377
-50.795738 -768.526489 257.005737
-50.439934 -768.457825 257.165649
-51.138805 -768.721863 256.858917
-52.228615 -768.65271 256.353302
-46.785877 -768.841248 259.183136
-47.171043 -768.672913 258.996429
-47.53677 -768.474731 258.816925
-47.921803 -768.30426 258.630157
-48.364811 -768.217529 258.421509
-48.943989 -768.326965 258.161469
-49.455433 -768.334106 257.926697
-49.558659 -768.336548 257.879395
-47.569374 -768.581116 259.149719
-41.727737 -767.212341 257.332672
-41.972122 -766.993774 257.796814
-41.543781 -767.49707 257.263306
-41.936142 -767.269836 257.726166
-51.38097 -768.663269 253.972458
-51.183784 -768.514038 254.338242
-41.375969 -767.793457 257.307953
-41.817966 -767.559265 257.779724
-51.760708 -769.739868 252.370071
-51.477745 -769.60083 252.723114
-51.162746 -769.466431 253.069901
-50.820122 -769.336243 253.410889
-50.498001 -769.203979 253.753922
-50.119011 -769.079834 254.085983
-49.660721 -768.967163 254.402725
-47.515381 -768.568909 255.592361
-47.133209 -768.450195 255.912567
-41.274864 -768.181396 257.304504
-41.637417 -767.926453 257.834167
-41.931335 -767.717285 258.269226
-52.157429 -770.59082 251.460266
-51.918266 -770.445068 251.821747
-51.60582 -770.308838 252.171097
-51.317047 -770.170227 252.522903
-50.970947 -770.039429 252.864426
-50.613384 -769.910706 253.202728
-50.179932 -769.792542 253.527023
-49.737324 -769.676453 253.847885
-49.240276 -769.56842 254.157578
-48.742161 -769.461487 254.464905
-48.11721 -769.372742 254.747696
-47.59267 -769.271484 255.045563
-46.959793 -769.186218 255.321426
-46.373592 -769.095764 255.602997
-45.985394 -768.97876 255.918793
-41.740086 -769.174072 256.031372
-41.437923 -769.051025 256.34964
-41.303825 -768.904053 256.700043
-41.238415 -768.747131 257.064026
-41.234276 -768.581116 257.440643
-41.383968 -768.391968 257.849487
-41.678654 -768.180542 258.289978
-52.126755 -771.063049 251.578812
-51.970821 -770.906555 251.95253
-51.567348 -770.780884 252.287994
-51.127476 -770.660583 252.616058
-50.787251 -770.528564 252.957977
-50.377171 -770.406006 253.287262
-50.082733 -770.269348 253.633713
-49.217281 -770.068542 254.197998
-48.514404 -769.953003 254.548767
-47.69088 -769.889771 254.796616
-47.130638 -769.792847 255.087158
-46.491455 -769.707703 255.361008
-45.877998 -769.620422 255.636566
-45.72855 -769.60675 255.686447
-41.313953 -769.649048 256.153076
-41.159828 -769.504822 256.498779
-41.099266 -769.34729 256.86264
-41.128063 -769.176758 257.244568
-41.139652 -769.008484 257.623627
-41.189274 -768.83429 258.011108
-41.494171 -768.621887 258.452545
-45.684383 -770.171448 255.60289
-40.876514 -770.092346 256.378998
-40.678215 -769.954651 256.714783
-40.67078 -769.790039 257.087616
-40.614826 -769.632202 257.451202
-40.671692 -769.457947 257.83786
-40.826458 -769.269043 258.245422
-41.28286 -769.035217 258.717102
-42.793388 -770.854065 255.565674
-40.222198 -770.539856 256.585602
-39.89772 -770.420105 256.894989
-39.792393 -770.27002 257.246277
-39.774055 -770.107666 257.614838
-39.78899 -769.940308 257.990509
-40.307583 -769.666626 258.545074
-39.793343 -771.092407 256.563049
-39.432465 -770.977356 256.864532
-39.065102 -770.863892 257.163269
-38.898266 -770.723022 257.500092
-38.928497 -770.554504 257.875916
-38.990288 -770.381226 258.258789
-39.224525 -771.63092 256.592133
-38.850449 -771.517456 256.889862
-38.472912 -771.40509 257.185394
-38.208885 -771.277771 257.501495
-38.100777 -771.129272 257.847565
-38.05315 -770.97229 258.205688
-38.09008 -770.803284 258.581268
-39.053146 -772.180603 256.59317
-38.547314 -772.083801 256.86615
-38.143265 -771.974365 257.156281
-37.684357 -771.873047 257.434082
-37.413368 -771.747009 257.746643
-37.193333 -771.614441 258.068298
-37.223598 -771.447388 258.439514
-37.237274 -771.282349 258.808014
-38.889977 -772.709717 256.716583
-38.243565 -772.630188 256.963409
-37.628853 -772.547791 257.213257
-37.155949 -772.447815 257.487335
-36.771263 -772.336914 257.776428
-36.524872 -772.208069 258.091034
-36.369545 -772.067078 258.423004
-36.325287 -771.91095 258.776978
-36.370522 -771.74231 259.149536
-38.878357 -773.260559 256.804871
-37.96339 -773.169067 257.103027
-37.356743 -773.084595 257.354004
-36.631523 -773.016907 257.579681
-36.11441 -772.923218 257.84198
-35.829567 -772.799561 258.147308
-35.553551 -772.675232 258.453339
-35.323311 -772.545166 258.767487
-35.343948 -772.381042 259.131897
-35.317757 -772.223083 259.487274
-37.93512 -773.638611 257.282654
-36.931221 -773.603455 257.460083
-36.228973 -773.531616 257.689453
-35.613338 -773.449951 257.932129
-35.175983 -773.346191 258.206512
-34.778694 -773.237915 258.486908
-34.480637 -773.117126 258.785431
-34.269264 -772.985107 259.100311
-34.215309 -772.832031 259.446747
-34.226696 -772.6698 259.806915
-37.080917 -774.022156 257.62149
-36.042171 -773.991089 257.789124
-35.284412 -773.926331 258.004974
-34.739655 -773.835632 258.258179
-34.184559 -773.747437 258.506927
-33.846653 -773.631714 258.796021
-33.410927 -773.529541 259.06424
-33.301086 -773.384583 259.396698
-33.240597 -773.23291 259.739166
-33.223072 -773.075378 260.090759
-33.168129 -772.901306 260.482422
-36.303276 -774.384766 257.897552
-35.337486 -774.344238 258.076447
-34.552052 -774.282898 258.284943
-33.881359 -774.208496 258.51181
-33.246971 -774.130737 258.742645
-32.876411 -774.019836 259.022736
-32.421944 -773.920654 259.284546
-32.276863 -773.781128 259.607239
-32.178677 -773.635376 259.939301
-32.219501 -773.470825 260.300323
-36.064869 -774.861755 257.757629
-35.872253 -774.689697 258.155548
-34.718277 -774.672058 258.298248
-33.814777 -774.625305 258.482788
-33.011482 -774.567749 258.682281
-32.364788 -774.49176 258.908539
-31.754669 -774.412292 259.139069
-31.371555 -774.304382 259.412292
-31.048584 -774.189148 259.696167
-30.874908 -774.054565 260.009491
-30.930754 -773.889282 260.370178
-35.957733 -774.998535 258.310333
-34.05138 -775.007568 258.456879
-33.109024 -774.965088 258.632843
-32.373165 -774.89856 258.843872
-31.217094 -774.887268 258.969757
-30.620729 -774.806335 259.200378
-30.105593 -774.716125 259.444489
-29.838099 -774.594421 259.736389
-34.058434 -775.326965 258.590668
-32.912727 -775.307861 258.729919
-31.835642 -775.282715 258.876617
-30.79088 -775.255859 259.024353
-31.567947 -775.744995 258.698761
-30.976805 -775.592346 259.082703
-65.721886 -788.149292 229.621643
-62.972321 -790.025024 231.938568
-31.103477 -776.261658 259.173523
-33.950863 -775.496155 258.683685
-32.983715 -775.477478 258.804779
-31.812143 -775.490723 258.868591
-30.951336 -775.460693 259.007416
-35.999493 -774.770325 258.138092
-35.108921 -774.738708 258.28656
-34.197216 -774.712097 258.425385
-33.445763 -774.663818 258.60083
-32.772251 -774.605408 258.792938
-32.130436 -774.54364 258.990234
-31.616638 -774.463806 259.218414
-31.168631 -774.374939 259.461914
-30.844748 -774.267883 259.73703
-30.617075 -774.146484 260.037109
-30.614244 -773.990417 260.398407
-37.560143 -774.071899 257.592285
-36.60891 -774.048157 257.731812
-35.809875 -774.004028 257.904846
-35.138561 -773.942749 258.106445
-34.508034 -773.876648 258.315369
-34.14946 -773.771057 258.591797
-33.701328 -773.679565 258.843384
-33.379032 -773.569763 259.126312
-33.180984 -773.441345 259.441193
-33.143745 -773.288269 259.798981
-33.136204 -773.130371 260.165192
-38.06749 -773.40387 257.176208
-37.405811 -773.338684 257.388885
-36.683655 -773.283691 257.583405
-36.06768 -773.214417 257.801331
-35.584698 -773.126282 258.050507
-35.39278 -772.995056 258.372894
-35.092468 -772.880554 258.666382
-34.885349 -772.752136 258.983459
-34.816051 -772.602661 259.336761
-34.766998 -772.44989 259.695679
-39.279015 -772.803223 256.69928
-38.499592 -772.754761 256.886993
-37.970215 -772.670776 257.133179
-37.392551 -772.595032 257.364868
-37.017864 -772.489868 257.645508
-36.621326 -772.388611 257.919067
-36.393852 -772.262207 258.234863
-36.173721 -772.134949 258.55191
-36.179153 -771.9729 258.928131
-36.192108 -771.808411 259.309296
-39.559402 -772.206238 256.523804
-38.803856 -772.155579 256.716949
-38.364216 -772.059021 256.985626
-38.04137 -771.945557 257.282013
-37.613068 -771.848694 257.550201
-37.344097 -771.728149 257.857819
-37.202164 -771.588318 258.197754
-37.168037 -771.431763 258.565979
-37.213993 -771.262451 258.955994
-39.494522 -771.702026 256.477875
-38.956032 -771.620544 256.723267
-38.665932 -771.502258 257.029388
-38.35376 -771.387878 257.328735
-38.148724 -771.257385 257.654785
-38.023121 -771.114746 258.001068
-38.038746 -770.949951 258.384766
-38.082191 -770.784973 258.766174
-39.8941 -771.258423 256.445679
-39.427246 -771.166748 256.709137
-39.061977 -771.060303 256.996674
-38.816166 -770.935974 257.313812
-38.730083 -770.786987 257.672058
-38.722885 -770.62561 258.051361
-38.685875 -770.456543 258.451813
-40.264343 -770.877197 256.436646
-39.84198 -770.779297 256.711487
-39.531048 -770.664856 257.01358
-39.356777 -770.529541 257.350433
-39.341206 -770.369324 257.728973
-39.379951 -770.200378 258.12262
-42.846649 -770.751465 255.524124
-40.459534 -770.459045 256.467468
-40.272327 -770.325073 256.80307
-40.066555 -770.194214 257.133331
-40.020737 -770.03833 257.505554
-40.011089 -769.876526 257.887848
-40.298386 -769.66687 258.351288
-40.668964 -769.44281 258.839813
-42.749489 -770.389404 255.418533
-41.189346 -770.13623 256.185059
-40.849846 -770.025635 256.48288
-40.705429 -769.88501 256.830566
-40.692623 -769.723633 257.212952
-40.594521 -769.575623 257.572998
-40.680729 -769.39801 257.983032
-40.8839 -769.20105 258.426147
-52.090405 -771.047119 251.770081
-51.720024 -770.926025 252.097183
-51.347282 -770.805847 252.422287
-50.952095 -770.689453 252.741013
-50.632195 -770.563171 253.074814
-50.207188 -770.452271 253.383789
-49.778996 -770.34259 253.690262
-49.349503 -770.233826 253.994659
