-59.986019 -775.800659 243.968781
-60.002064 -775.646973 243.879196
-60.148354 -775.615845 243.839111
-60.231277 -775.497498 243.561264
-58.991638 -758.671936 237.315033
-59.073345 -758.510376 237.198227
-59.410458 -758.641541 237.672318
-60.318096 -759.1474 238.934875
-60.83466 -759.083679 239.685349
-61.208698 -759.286682 240.206131
-61.571583 -759.494629 240.710403
-59.117527 -758.264587 237.032883
-59.366161 -758.467346 237.372833
-59.615448 -758.667603 237.713959
-60.337391 -758.94458 238.729462
-60.575241 -759.156677 239.053024
-61.120289 -759.037109 239.849655
-61.367268 -759.330933 240.178925
-59.135311 -758.033264 236.835709
-59.303692 -758.361633 237.04834
-59.639843 -758.427429 237.526871
-59.880264 -758.640686 237.853882
-60.497437 -758.845886 238.724731
-60.72163 -759.079651 239.026489
-61.046734 -759.149719 239.488693
-61.440479 -759.323486 240.040359
-59.22646 -757.905457 236.739136
-59.393742 -758.235535 236.94986
-59.716343 -758.322998 237.406815
-59.979961 -758.500244 237.770477
-60.573261 -758.744202 238.60321
-60.811329 -758.956177 238.926834
-61.1231 -759.048157 239.367752
-59.398712 -757.985291 236.739716
-59.597363 -758.266724 237.000076
-59.919456 -758.354431 237.456284
-60.161251 -758.565552 237.785339
-60.71603 -758.751953 238.567856
-60.955391 -758.961853 238.893509
-61.183365 -759.18866 239.201187
-59.48 -757.943176 236.628845
-59.689289 -758.208313 236.906021
-60.008698 -758.300598 237.357956
-60.23996 -758.528564 237.670258
-60.627235 -758.62677 238.219482
-60.884064 -758.810303 238.572754
-61.090294 -759.07312 238.845749
-59.59177 -757.840088 236.561783
-59.789028 -758.123779 236.820053
-60.05904 -758.293396 237.193787
-60.28989 -758.522522 237.505554
-60.613518 -758.603882 237.964737
-59.907616 -758.146729 236.724243
-60.191296 -758.295166 237.119736
-60.406471 -758.54895 237.406677
-87.150536 -753.19043 212.990799
-87.236588 -753.66449 213.049561
-87.22258 -752.994446 212.730347
-87.326324 -753.439026 212.818634
-87.320137 -752.875244 212.489899
-87.42128 -753.323242 212.574066
-86.512039 -751.177673 210.610382
-86.743416 -751.420044 210.911377
-86.965401 -751.675964 211.196899
-87.157974 -751.977234 211.433594
-87.59137 -753.110107 211.903076
-86.936684 -751.774536 209.926239
-87.193077 -751.978577 210.268631
-87.401062 -752.257385 210.530441
-87.558357 -752.615906 210.707657
-86.877815 -751.747131 209.887405
-87.130119 -751.967163 210.188156
-87.33123 -752.25238 210.418808
-87.493629 -752.587708 210.59639
-86.586601 -751.43396 209.975739
-86.871513 -751.616089 210.316101
-87.091461 -751.879517 210.568771
-87.282341 -752.179443 210.782181
-87.465858 -752.488586 210.985657
-87.608009 -752.851257 211.133148
-87.703499 -753.275391 211.217377
-86.523399 -751.330627 210.050201
-86.785591 -751.5448 210.355637
-87.018623 -751.794373 210.622284
-87.216316 -752.087769 210.841827
-87.407501 -752.389038 211.052719
-87.558922 -752.741089 211.21051
-87.661659 -753.15625 211.303177
-86.472549 -751.327698 209.977203
-86.739319 -751.539673 210.284439
-86.99192 -751.767883 210.573166
-87.189117 -752.064392 210.788956
-87.384232 -752.363037 211.002045
-87.636902 -753.134827 211.246765
-86.564011 -751.453735 209.859756
-86.827042 -751.673645 210.157883
-87.073654 -751.912415 210.434753
-87.286057 -752.192566 210.667175
-87.519638 -752.549377 210.918808
-87.649277 -752.931213 211.043549
-87.253662 -752.098022 210.223282
-87.456215 -752.44458 210.435242
-87.146935 -752.02417 210.320648
-87.372726 -752.413818 210.526184
-86.525894 -751.2995 210.111801
-86.864128 -751.666016 210.408905
-87.174683 -752.037231 210.682266
-87.405273 -752.426392 210.887024
-87.568108 -752.83136 211.033661
-87.681396 -753.24823 211.137817
-86.955368 -751.716797 210.68129
-87.185738 -752.107788 210.881104
-87.555626 -752.908569 211.204041
-87.647758 -753.330933 211.287231
-86.967506 -751.710938 210.549484
-87.187599 -752.104919 210.736664
-87.426292 -752.493286 210.939301
-87.560646 -752.905762 211.055161
-86.581268 -751.474792 210.556519
-86.93895 -751.96405 210.826187
-59.719944 -758.014648 236.608765
-59.36591 -758.01947 236.754105
-59.019997 -757.964905 236.882248
-59.346142 -757.979797 236.791626
-59.250057 -758.184814 237.1371
-59.149448 -758.394043 237.479294
-59.585381 -758.084778 236.933258
-59.583111 -758.204895 237.348633
-59.508591 -758.390442 237.70932
-59.77486 -758.11261 236.910095
-59.737991 -758.264465 237.299042
-59.678406 -758.436829 237.670609
-59.868462 -758.112305 236.746063
-59.87849 -758.221985 237.170502
-59.783821 -758.426331 237.515579
-59.957134 -758.163635 236.9617
-59.885662 -758.34729 237.324173
-59.834564 -758.526245 237.75
-59.999943 -758.160034 236.928757
-59.92886 -758.34375 237.291382
-59.901676 -758.484863 237.677307
-59.975555 -758.145874 236.76622
-59.962547 -758.277588 237.172836
-59.878601 -758.473328 237.525528
-59.976246 -758.179443 237.043427
-59.878605 -758.388062 237.385605
-59.963795 -758.155823 237.013153
-59.870567 -758.361267 237.358261
-59.871487 -758.480591 237.770401
-59.941338 -758.121826 236.726593
-59.952866 -758.233582 237.150864
-59.850147 -758.448181 237.488495
-60.042446 -758.242371 237.108002
-59.927399 -758.468872 237.435806
-59.997238 -758.540344 237.942169
-60.155716 -758.334656 237.208817
-60.118561 -758.491638 237.59433
-60.145988 -758.590149 238.027603
-60.134708 -758.723389 238.431213
-60.117001 -758.865417 238.840012
-60.239162 -758.484436 237.277557
-60.314732 -758.540405 237.746872
-60.37648 -758.608459 238.204544
-60.321236 -758.782166 238.574463
-60.273689 -758.948853 238.949783
-60.329559 -758.621094 237.279465
-60.457249 -758.630554 237.787399
-60.538906 -758.681152 238.259277
-60.512859 -758.828979 238.650131
-60.409859 -759.046631 238.983994
-60.435627 -759.147156 239.412125
-60.569149 -758.686279 237.610489
-60.589165 -758.793457 238.036575
-60.622078 -758.888672 238.471313
-60.666103 -758.973511 238.913284
-60.711533 -759.056763 239.355194
-60.731178 -759.163147 239.777298
-60.698997 -759.316528 240.161026
-60.729725 -759.035217 238.609482
-60.82095 -759.077759 239.085602
-60.834682 -759.190369 239.503586
-60.875866 -759.27771 239.94075
-60.91227 -759.369141 240.373428
-60.843452 -759.566162 240.761215
-60.823956 -759.133667 238.543167
-60.966873 -759.130127 239.057373
-60.954941 -759.266907 239.456177
-60.983337 -759.366699 239.88382
-61.048336 -759.432861 240.337051
-60.994564 -759.607239 240.703583
-61.050243 -759.681335 241.148254
-60.914696 -759.31311 238.677155
-61.037487 -759.328613 239.175949
-61.135563 -759.36615 239.654907
-61.153008 -759.476746 240.073685
-61.167469 -759.589783 240.489471
-61.262932 -759.62854 240.962784
-61.237385 -759.777649 241.348099
-61.184303 -759.951965 241.71344
-61.073818 -759.473816 238.940903
-61.300545 -759.522644 239.920898
-61.351479 -759.603271 240.363098
-61.396568 -759.688904 240.799988
-61.425262 -759.789246 241.224075
-61.405067 -759.934143 241.612427
-61.294926 -760.17572 241.981537
-61.458008 -759.679138 240.067108
-61.522846 -759.747559 240.518814
-61.564411 -759.836975 240.952515
-61.545914 -759.981079 241.342117
-61.523197 -760.128967 241.728256
-61.491093 -760.300842 242.156525
-61.736916 -760.085022 241.395905
-61.647949 -760.294128 241.734222
-61.580902 -760.505249 242.157806
-61.898937 -760.21698 241.407486
-61.846157 -760.393372 241.771271
-61.723686 -760.63385 242.085358
-61.888767 -760.535278 241.320862
-61.956631 -760.60144 241.771301
-61.812431 -760.879028 242.120819
-61.939556 -760.937866 241.727875
-61.92445 -761.080627 242.118515
-87.157097 -753.420349 212.061752
-87.274521 -753.243347 211.497543
-87.128166 -753.406311 211.89711
-87.167 -753.359863 211.406921
-60.542488 -758.780945 237.498764
-60.291138 -758.641052 237.513824
-60.628742 -758.913269 237.844147
-60.275982 -758.668701 237.702393
-60.600662 -758.946472 238.028137
-60.536697 -758.888062 238.142181
-60.833946 -759.176331 238.457809
-60.99762 -759.521118 238.727325
-61.129547 -759.879272 238.985855
-59.663723 -758.47644 237.62854
-60.546352 -758.85199 238.318192
-60.798237 -759.159729 238.61821
-61.060791 -759.461853 238.921371
-61.213158 -759.810913 239.186707
-60.429848 -758.857239 238.458099
-60.754593 -759.13385 238.783096
-61.087269 -759.405701 239.110062
-60.169029 -758.717773 238.42717
-60.503933 -759.05481 238.789001
-60.904896 -759.297913 239.139557
-60.323486 -758.889038 238.760498
-60.759411 -759.209412 239.170517
-61.127892 -759.465332 239.50946
-60.564495 -759.157593 239.19194
-61.034084 -759.370361 239.56543
-61.347286 -759.68335 239.902771
-60.937763 -759.332214 239.707169
-61.324009 -759.620605 240.073013
-60.897434 -759.375977 240.011368
-60.323761 -759.715454 239.92218
-60.591751 -759.259521 240.166504
-60.221931 -759.070984 239.461792
-60.731934 -758.94165 239.503082
-59.875397 -759.331055 238.961929
-60.196304 -758.958557 239.155228
-59.795403 -759.113403 238.727951
-60.170006 -758.810059 238.877914
-59.67704 -758.937317 238.454544
-60.1236 -758.72644 238.546478
-59.507458 -758.775757 238.147659
-59.912148 -758.511292 238.273102
-59.213173 -758.690308 237.782166
-59.591488 -758.391968 237.928802
-59.132164 -758.536316 237.439346
-59.597321 -758.34967 237.515457
-59.103516 -758.297974 237.130859
-59.760052 -758.35791 237.051224
-59.287445 -758.031921 236.834869
-61.158421 -760.117554 241.407547
-60.90712 -761.449768 240.489517
-61.118916 -759.806702 241.124634
-60.466656 -761.698792 239.917084
-60.694023 -761.20752 240.125183
-60.654613 -759.815552 240.639481
-61.005547 -759.584229 240.764328
-60.666363 -761.408081 239.599792
-60.615261 -759.462585 240.320358
-61.14587 -759.265808 240.007812
-60.431892 -759.160156 239.524857
-60.865475 -759.097168 239.595428
-60.23642 -759.023438 239.127518
-60.685673 -758.993835 239.187256
-59.762653 -759.227173 238.589645
-60.08284 -758.917664 238.740631
-60.511395 -758.848145 238.813034
-59.642872 -758.974487 238.293091
-59.983612 -758.727905 238.422607
-60.439678 -758.715759 238.476181
-59.422501 -758.904419 237.941605
-59.754223 -758.639832 238.077026
-60.176323 -758.560669 238.152115
-59.417858 -758.533875 237.734146
-59.80125 -758.377502 237.834259
-59.601341 -758.301025 237.503082
-59.806149 -758.247437 237.198532
-55.947926 -778.907898 210.612457
-59.932453 -758.969055 238.706985
-60.777397 -761.569336 239.826004
-60.319698 -759.741882 240.222015
-60.655048 -759.38623 240.322357
-60.457638 -759.156372 239.501587
-59.866653 -759.057129 238.636322
-60.324661 -758.791443 238.722473
-59.489578 -759.068481 238.299377
-59.888004 -758.813904 238.386017
-59.788445 -759.437256 238.89537
-60.084091 -759.090637 239.000031
-60.269367 -759.25531 239.532745
-60.850456 -761.517273 239.964767
-60.567169 -759.655273 240.425018
-60.996338 -759.435303 240.505844
-61.332897 -759.631348 241.020706
-38.03801 -725.288635 217.244339
